# .PCD v0.7 - Point Cloud Data file format
VERSION 0.7
FIELDS x y z rgb
SIZE 4 4 4 4
TYPE F F F F
COUNT 1 1 1 1
WIDTH 1246
HEIGHT 1
VIEWPOINT 0 0 0 1 0 0 0
POINTS 1246
DATA ascii
-6.2457609 0.67171431 3.005662 17788
-6.2599688 0.61551476 3.0128357 9048
-6.2599688 0.5567348 3.0128357 9043
-6.2741542 0.50066543 3.0199983 336473
-6.2741542 0.44193006 3.0199983 336473
-6.2741542 0.38319492 3.0199983 204888
-6.2741542 0.32445979 3.0199983 336218
-6.2741542 0.26572442 3.0199983 205658
-6.2741542 0.20698953 3.0199983 205915
-1.4787533 4.6040606 0.54357475 41464
-1.6370417 4.5271406 0.61735141 39671
-1.7710547 4.4515944 0.67981368 40429
-1.8595588 4.3774738 0.72106415 41724
-1.9473999 4.3039079 0.7620061 42239
-2.0562818 4.2307405 0.81275457 40959
-2.2070234 4.1580877 0.88301396 40180
-2.2710311 4.0864305 0.91284734 42232
-2.3346853 4.0151691 0.94251561 41727
-2.3769264 3.9441838 0.9622044 41727
-2.3979895 3.8732791 0.97202134 43519
-2.4399991 3.8027489 0.99160165 44031
-2.4609463 3.732168 1.0013645 44799
-2.4609463 3.6613426 1.0013645 47615
-2.4818542 3.5909553 1.0111101 46847
-2.5027254 3.5206966 1.0208378 46591
-2.5443523 3.4511306 1.0402397 47871
-2.56511 3.3811913 1.0499142 46847
-2.5858283 3.3113792 1.0595707 47359
-2.5858283 3.2409403 1.0595707 47103
-2.5858283 3.1705017 1.0595707 45567
-2.56511 3.0991793 1.0499142 46335
-2.5443523 3.0277271 1.0402397 44287
-2.5443523 2.95716 1.0402397 43519
-2.5235581 2.8855131 1.0305474 41471
-2.5027254 2.8137352 1.0208378 42751
-2.5027254 2.7430391 1.0208378 44287
-2.5027254 2.6723428 1.0208378 44031
-2.5027254 2.6016469 1.0208378 42495
-2.5027254 2.5309505 1.0208378 42495
-2.5027254 2.4602544 1.0208378 42495
-2.4609463 2.3864837 1.0013645 42239
-2.4609463 2.3156583 1.0013645 41727
-2.4399991 2.2431612 0.99160165 40959
-2.3979895 2.1687889 0.97202134 38909
-2.3769264 2.0959578 0.9622044 37119
-2.3346853 2.0211096 0.94251561 35316
-2.2922883 1.9459853 0.922755 35045
-2.2497342 1.8705838 0.90292096 34019
-2.1856089 1.7927969 0.87303251 33758
-2.1211245 1.714576 0.8429774 32726
-2.0562818 1.6359189 0.81275457 31957
-1.9910738 1.5568209 0.78236246 30927
-1.8815809 1.4724145 0.73132819 29640
-1.7488252 1.3846817 0.66945219 95170
-0.45803842 1.0066528 0.067829907 21131
-0.91962224 0.98789096 0.28296918 208507
-1.7042385 0.94059563 0.64867085 287656
-2.0128505 0.90924931 0.79251194 23203
-2.419013 0.89333606 0.98181999 23456
-2.8112729 0.87796736 1.1646482 748205
-3.1510305 0.85742545 1.3230059 222373
-3.4997785 0.84031653 1.4855542 1205930
-3.8377323 0.8237381 1.6430709 942240
-4.1294727 0.80213046 1.7790478 24990
-4.4657927 0.78933668 1.9358027 482717
-4.7408457 0.76880598 2.0640023 943013
-5.0746312 0.75957394 2.2195771 877725
-5.3339715 0.74001527 2.3404517 24213
-5.6179047 0.72623229 2.4727907 418722
-5.8787603 0.71022344 2.594372 1401501
-6.147542 0.69722271 2.7196491 91815
-6.3515153 0.67429447 2.8147187 83841
-6.3515153 0.61551476 2.8147187 7771
-6.3659186 0.55940032 2.8214321 140121
-6.3515153 0.49795532 2.8147187 205134
-6.3370886 0.43641615 2.8079946 7253
-6.3515153 0.38039541 2.8147187 74326
-6.3659186 0.32445979 2.8214321 74076
-6.3370886 0.25994277 2.8079946 139083
-6.3515153 0.20405626 2.8147187 8799
-1.6783842 4.5267081 0.57537544 39408
-1.7915345 4.4515944 0.6238476 39156
-1.9036241 4.3771853 0.6718654 40182
-1.9925407 4.303689 0.70995671 42495
-2.0587938 4.2308903 0.73833835 42746
-2.2336707 4.1580877 0.81325334 40951
-2.3201416 4.0864153 0.85029709 41464
-2.3631384 4.0151691 0.86871636 41983
-2.4059772 3.9441838 0.88706797 41983
-2.4486592 3.8734593 0.90535253 43519
-2.4699421 3.8027489 0.91446948 44799
-2.4699421 3.7318585 0.91446948 46847
-2.4699421 3.6609683 0.91446948 47359
-2.4911857 3.590517 0.92357016 46847
-2.533556 3.5206966 0.94172084 47103
-2.5757718 3.4511306 0.95980573 48383
-2.596823 3.3811913 0.96882349 47871
-2.596823 3.3106885 0.96882349 47871
-2.596823 3.2401853 0.96882349 47871
-2.596823 3.1696825 0.96882349 46079
-2.5757718 3.0982943 0.95980573 46591
-2.5546832 3.0267763 0.95077133 45055
-2.5546832 2.9561448 0.95077133 44543
-2.533556 2.8844314 0.94172084 43263
-2.533556 2.8137352 0.94172084 43263
-2.5546832 2.7442498 0.95077133 43007
-2.5546832 2.6736181 0.95077133 42751
-2.5546832 2.6029863 0.95077133 43007
-2.533556 2.5309505 0.94172084 43007
-2.5123897 2.4587831 0.93265367 42239
-2.5123897 2.3880224 0.93265367 42239
-2.4911857 2.3156583 0.92357016 41471
-2.4699421 2.2431612 0.91446948 40695
-2.4486592 2.1705317 0.90535253 38900
-2.4059772 2.0959578 0.88706797 37876
-2.3631384 2.0211096 0.86871636 36335
-2.3416603 1.9479413 0.85951483 34535
-2.2769856 1.8705838 0.83180904 34273
-2.2336707 1.7949033 0.81325334 33243
-2.1683953 1.7167609 0.78529072 32468
-2.1027572 1.6381829 0.75717181 31447
-2.0146661 1.5568209 0.7194348 30923
-1.9036241 1.4724145 0.6718654 29900
-1.7915345 1.3872123 0.6238476 28086
-0.459943 1.0066528 0.053409092 20611
-0.95221335 0.99089789 0.264292 13948
-1.7010998 0.93763518 0.58510637 680869
-2.0807965 0.91513515 0.74776363 351650
-2.4486592 0.89333606 0.90535253 419503
-2.7845638 0.86931753 1.0492496 1205676
-3.2109771 0.86027312 1.2319207 91302
-3.5447145 0.84031653 1.3748895 812200
-3.887449 0.8237381 1.521713 287904
-4.1833167 0.80213046 1.6484592 746144
-4.5067139 0.78659654 1.7869987 154774
-4.820529 0.77152252 1.9214331 353961
-5.1251826 0.7568891 2.0519433 1334940
-5.3723478 0.73467898 2.1578269 482709
-5.7085624 0.72886729 2.3018577 25248
-5.9726944 0.71283555 2.4150078 549535
-6.2299352 0.69722271 2.5252066 1139619
-6.422163 0.67171431 2.6075563 20092
-6.4514017 0.61813593 2.62008 8533
-6.4514017 0.55940032 2.62008 468063
-6.4514017 0.50066543 2.62008 270666
-6.4659863 0.44468069 2.6263282 8275
-6.4367938 0.38039541 2.6138237 401746
-6.4367938 0.3216157 2.6138237 401747
-6.4514017 0.26572442 2.62008 205400
-6.4367938 0.20405626 2.6138237 8281
1.247749 6.6364207 -0.63051671 39666
1.2188367 6.551609 -0.61919194 40689
1.247749 6.472065 -0.63051671 38888
1.2767236 6.3923521 -0.64186549 38378
-1.695629 4.5267081 0.52237213 38639
-1.8330406 4.4512353 0.57619429 39154
-1.9237885 4.3771853 0.61173958 39671
-2.0138578 4.303689 0.64701915 41983
-2.1032577 4.2307405 0.68203521 41470
-2.2361143 4.1581693 0.73407423 41207
-2.3457053 4.0864153 0.77700013 42235
-2.3892593 4.0151691 0.79405963 42236
-2.4326537 3.9441838 0.81105655 43775
-2.4542916 3.8732791 0.81953168 45823
-2.4758887 3.8025038 0.82799143 47103
-2.4758887 3.7315488 0.82799143 47103
-2.4758887 3.6605935 0.82799143 46847
-2.4758887 3.589638 0.82799143 45567
-2.5189667 3.5196915 0.84486431 49663
-2.5618861 3.4500003 0.8616752 53503
-2.5832872 3.3799345 0.87005764 50943
-2.6046491 3.3099961 0.87842512 48127
-2.5832872 3.2386713 0.87005764 48895
-2.5832872 3.1680396 0.87005764 47615
-2.5618861 3.0965197 0.8616752 46335
-2.5618861 3.0258236 0.8616752 44799
-2.5832872 2.9561448 0.87005764 44543
-2.5832872 2.8855131 0.87005764 43007
-2.5618861 2.8137352 0.8616752 43519
-2.5832872 2.7442498 0.87005764 43007
-2.5832872 2.6736181 0.87005764 42751
-2.5618861 2.6016469 0.8616752 42495
-2.5618861 2.5309505 0.8616752 42495
-2.5618861 2.4602544 0.8616752 41727
-2.5404451 2.3880224 0.85327733 41727
-2.5189667 2.3156583 0.84486431 41215
-2.4974475 2.2431612 0.8364355 40187
-2.4758887 2.1705317 0.82799143 39415
-2.4326537 2.0959578 0.81105655 37619
-2.3892593 2.0211096 0.79405963 35821
-2.3675029 1.9479413 0.7855373 34275
-2.323868 1.8726127 0.76844621 32995
-2.2581134 1.7949033 0.7426908 32733
-2.191992 1.7167609 0.71679223 32724
-2.1255028 1.6381829 0.69074893 30929
-2.0362701 1.5568209 0.65579754 30417
-1.9237885 1.4724145 0.61173958 29384
-1.810246 1.3872123 0.56726629 27588
-0.46139368 1.0066528 0.038935572 18563
-0.93557537 0.98789096 0.22466722 10613
-1.7186389 0.93763518 0.53138477 221600
-2.1032577 0.91513515 0.68203521 23463
-2.5189667 0.8991487 0.84486431 484524
-2.8370872 0.87220597 0.96946871 1336237
-3.2480884 0.86027312 1.1304536 485547
-3.5665431 0.8374939 1.2551887 1271208
-3.9333291 0.8237381 1.3988545 745118
-4.2514935 0.80489945 1.5234761 417436
-4.5785303 0.78933668 1.6515734 745885
-4.8610911 0.76880598 1.762248 876954
-5.1871071 0.7568891 1.8899448 615330
-5.4704051 0.74001527 2.0009091 1335713
-5.7460999 0.72359324 2.1088965 551332
-6.0300622 0.71022344 2.2201221 747431
-6.30618 0.69722271 2.3282733 1729699
-6.5008998 0.67171431 2.4045444 19843
-6.5157199 0.61551476 2.4103494 75096
-6.5157199 0.5567348 2.4103494 8793
-6.5305171 0.50066543 2.4161434 205649
-6.5157199 0.43917537 2.4103494 8022
-6.5157199 0.38039541 2.4103494 8023
-6.5305171 0.32445979 2.4161434 9047
-6.5305171 0.26572442 2.4161434 8532
-6.5157199 0.20405626 2.4103494 74844
1.2376846 6.8799715 -0.58060181 39913
1.1212851 6.7863593 -0.53917712 41461
1.0923387 6.7018366 -0.52887589 41723
1.0634531 6.6174917 -0.51859617 42234
1.0346285 6.5333242 -0.50833815 42237
1.0634531 6.4543481 -0.51859617 41468
1.0923387 6.375205 -0.52887589 40442
1.1212851 6.2958956 -0.53917712 40434
1.1793612 6.218689 -0.55984586 39667
1.2376846 6.1411552 -0.58060181 38384
-1.7577204 4.5258446 0.48540896 37609
-1.8732542 4.4508767 0.52652556 38635
-1.9649019 4.3768973 0.55914086 40685
-2.0558643 4.3034711 0.59151316 41471
-2.1236429 4.2307405 0.61563373 41727
-2.2580688 4.1581693 0.66347396 41978
-2.346859 4.0864305 0.69507253 43260
-2.3910089 4.0151186 0.71078461 43519
-2.4349964 3.9440682 0.726439 48895
-2.4569292 3.8730984 0.73424482 50431
-2.500675 3.8025038 0.74981338 48126
-2.4788225 3.7312381 0.7420361 46335
-2.4788225 3.6602178 0.7420361 46079
-2.4788225 3.5891974 0.7420361 45823
-2.5224884 3.5191875 0.75757599 49663
-2.5442615 3.4488659 0.76532471 55039
-2.5659938 3.3786731 0.77305895 50175
-2.5876877 3.3086083 0.78077924 47871
-2.5876877 3.2379119 0.78077924 48127
-2.5876877 3.1672158 0.78077924 45567
-2.5876877 3.0965197 0.78077924 45055
-2.6093416 3.0267763 0.78848523 43519
-2.6093416 2.9561448 0.78848523 44031
-2.6093416 2.8855131 0.78848523 43519
-2.6093416 2.8148816 0.78848523 43007
-2.6093416 2.7442498 0.78848523 42239
-2.6093416 2.6736181 0.78848523 42495
-2.6093416 2.6029863 0.78848523 42239
-2.5876877 2.5309505 0.78077924 42239
-2.5876877 2.4602544 0.78077924 40703
-2.5659938 2.3880224 0.77305895 40959
-2.5442615 2.3156583 0.76532471 41727
-2.5442615 2.2448328 0.76532471 40189
-2.500675 2.1705317 0.74981338 38392
-2.4788225 2.0977688 0.7420361 37357
-2.4349964 2.0229926 0.726439 35819
-2.3910089 1.9479413 0.71078461 34279
-2.346859 1.8726127 0.69507253 32990
-2.2803276 1.7949033 0.67139524 33501
-2.2357676 1.7189419 0.65553707 31956
-2.1686177 1.6404428 0.63164002 30161
-2.0558643 1.5568209 0.59151316 30669
-1.9649019 1.4748487 0.55914086 29637
-1.8502349 1.3897383 0.51833272 27584
-0.48809209 1.0096979 0.033571094 18820
-0.91736329 0.98487854 0.1863406 10092
-1.7112004 0.93466902 0.46885341 24483
-2.1461508 0.9180696 0.62364441 155561
-2.4788225 0.89042211 0.7420361 354223
-2.8661392 0.87220597 0.87987518 747175
-3.2819939 0.86027312 1.0278709 287138
-3.6042099 0.8374939 1.1425415 548770
-3.9560971 0.82094431 1.2677714 810907
-4.2972493 0.80489945 1.3891816 614813
-4.6281486 0.78933668 1.5069432 679578
-4.9140463 0.76880598 1.6086879 746142
-5.2268047 0.75420022 1.719993 877985
-5.5305557 0.74001527 1.8280922 483490
-5.8579574 0.73149776 1.9446096 26017
-6.0968223 0.71022344 2.0296178 24994
-6.3914952 0.69980907 2.1344867 220572
-6.5882158 0.67429447 2.2044945 280703
-6.5732203 0.61288977 2.1991596 336990
-6.6031871 0.55940032 2.2098227 74326
-6.6031871 0.50066543 2.2098227 205397
-6.6031871 0.44193006 2.2098227 8784
-6.5882158 0.38039541 2.2044945 401752
-6.6031871 0.32445979 2.2098227 466775
-6.6031871 0.26572442 2.2098227 598611
-6.5882158 0.20405626 2.2044945 8277
1.1376677 6.9498472 -0.50369066 40692
1.0500853 6.8592677 -0.47558886 42490
1.0210145 6.7749348 -0.46626034 41471
0.9630546 6.6880293 -0.44766352 43007
0.9630546 6.6068001 -0.44766352 43775
0.9630546 6.5255709 -0.44766352 43519
0.9630546 6.4443407 -0.44766352 42495
0.9630546 6.3631115 -0.44766352 42495
0.9920041 6.2842054 -0.45695201 42239
1.0500853 6.2073812 -0.47558886 41214
1.1084121 6.1302323 -0.4943037 39928
1.166985 6.0527568 -0.513098 39921
1.3145074 5.9810266 -0.56043279 38378
-1.6542234 4.6015248 0.39213473 36324
-1.7955419 4.5254145 0.4374797 36581
-1.9120902 4.4505186 0.47487617 38632
-2.0275488 4.3763232 0.5119229 40181
-2.1191406 4.3030357 0.54131192 41211
-2.1646812 4.2305908 0.55592442 41724
-2.2552555 4.1582513 0.58498645 42495
-2.3451605 4.0864458 0.61383402 45055
-2.3898649 4.0150681 0.62817818 46591
-2.4566131 3.9440682 0.64959544 54015
-2.47878 3.8730984 0.65670854 51967
-2.5009074 3.8022585 0.66380823 49919
-2.5009074 3.7312381 0.66380823 48127
-2.5009074 3.6602178 0.66380823 45311
-2.5229933 3.589638 0.67089462 44287
-2.5450397 3.5191875 0.67796886 47359
-2.58901 3.4494336 0.69207764 50175
-2.58901 3.3786731 0.69207764 46591
-2.6109357 3.3086083 0.69911277 46335
-2.6328211 3.2386713 0.70613474 46591
-2.6328211 3.1680396 0.70613474 45311
-2.6546659 3.0982943 0.71314442 44543
-2.6546659 3.0277271 0.71314442 43263
-2.6546659 2.95716 0.71314442 43519
-2.6546659 2.8865926 0.71314442 43263
-2.6546659 2.8160253 0.71314442 42495
-2.6546659 2.7454581 0.71314442 42495
-2.6546659 2.6748908 0.71314442 42751
-2.6546659 2.6043234 0.71314442 42239
-2.6546659 2.5337563 0.71314442 41215
-2.6328211 2.4617233 0.70613474 40703
-2.6328211 2.3910918 0.70613474 40191
-2.6109357 2.3188624 0.69911277 40189
-2.5670455 2.2448328 0.68502927 39933
-2.5450397 2.1722708 0.67796886 37878
-2.5229933 2.0995765 0.67089462 37357
-2.47878 2.0248721 0.65670854 34793
-2.4344044 1.9498932 0.64246929 34019
-2.3898649 1.8746376 0.62817818 33758
-2.3451605 1.7991042 0.61383402 32731
-2.2777948 1.7211187 0.59221834 30932
-2.210052 1.6426985 0.57048225 30671
-2.1191406 1.5615051 0.54131192 30411
-2.0045438 1.4772785 0.50454134 28872
-1.8888686 1.3922598 0.4674249 27828
-0.51483244 1.0127368 0.02654201 15735
-0.94783622 0.98789096 0.16547838 10093
-1.7721002 0.94059563 0.42995769 548768
-2.1646812 0.9180696 0.55592442 287139
-2.5670455 0.8991487 0.68502927 746924
-2.9350743 0.87796736 0.80311781 25513
-3.3126609 0.86027312 0.92427284 550055
-3.6383195 0.8374939 1.0287668 220830
-4.0134025 0.8237381 1.1491182 483483
-4.3576117 0.80766416 1.2595627 156064
-4.6731997 0.78933668 1.3608247 90523
-4.997736 0.77423525 1.4649574 1140385
-5.3128033 0.75957394 1.5660536 812448
-5.618814 0.74533439 1.6642416 156319
-5.8671803 0.72359324 1.7439344 944550
-6.1893291 0.71544409 1.847302 549801
-6.4553876 0.69980907 1.9326699 811672
-6.6542101 0.67429447 1.9964657 404838
-6.6542101 0.61551476 1.9964657 533344
-6.6542101 0.5567348 1.9964657 531799
-6.6390548 0.49524093 1.9916029 205655
-6.6542101 0.43917537 1.9964657 73816
-6.6693411 0.38319492 2.0013211 7509
-6.6542101 0.3216157 1.9964657 139862
-6.6542101 0.26283574 1.9964657 269903
-6.6542101 0.20405626 1.9964657 206941
1.1233916 7.0284677 -0.45924371 40428
1.0645058 6.9407539 -0.44237018 41979
1.0058678 6.8534079 -0.42556688 43007
0.97664082 6.7692585 -0.41719231 43519
0.94747573 6.6852851 -0.40883467 44031
0.9183709 6.6014876 -0.40049469 44543
0.9183709 6.5204287 -0.40049469 44543
0.9183709 6.4393687 -0.40049469 42751
0.94747573 6.3607082 -0.40883467 42751
0.97664082 6.2818823 -0.41719231 43007
1.0058678 6.2028909 -0.42556688 41983
1.0645058 6.1258955 -0.44237018 41471
1.1233916 6.0485744 -0.45924371 41211
1.2121871 5.9729381 -0.4846884 40953
1.3314624 5.8987613 -0.51886654 38380
-1.6657245 4.6015248 0.33998078 35803
-1.8083975 4.5254145 0.38086447 38374
-1.9260629 4.4505186 0.4145816 38378
-2.0194027 4.3766098 0.44132814 39410
-2.1120453 4.3032532 0.46787491 41215
-2.1810751 4.2305908 0.48765579 40959
-2.2497201 4.1583328 0.50732583 42495
-2.2952728 4.0864916 0.52037883 44031
-2.3632843 4.0149665 0.53986782 46847
-2.4084172 3.9437201 0.55280071 52735
-2.4309213 3.8725545 0.55924928 52991
-2.475805 3.8017664 0.57211077 50175
-2.475805 3.7306156 0.57211077 46335
-2.520524 3.6602178 0.58492523 44031
-2.5428216 3.589638 0.59131444 44287
-2.5650795 3.5191875 0.59769267 45311
-2.5872962 3.4488659 0.60405838 45055
-2.6094711 3.3786731 0.61041331 44799
-2.6316071 3.3086083 0.61675626 44799
-2.6537023 3.2386713 0.62308735 44031
-2.6537023 3.1680396 0.62308735 44031
-2.6537023 3.0974078 0.62308735 44543
-2.6757565 3.0277271 0.62940741 44287
-2.6757565 2.95716 0.62940741 43519
-2.6757565 2.8865926 0.62940741 43263
-2.6757565 2.8160253 0.62940741 42751
-2.6757565 2.7454581 0.62940741 42239
-2.6537023 2.6736181 0.62308735 41983
-2.6757565 2.6043234 0.62940741 41983
-2.6537023 2.5323548 0.62308735 41471
-2.6537023 2.4617233 0.62308735 40959
-2.6316071 2.3895583 0.61675626 40703
-2.6094711 2.3172617 0.61041331 40186
-2.5872962 2.2448328 0.60405838 39160
-2.5650795 2.1722708 0.59769267 38899
-2.520524 2.0977688 0.58492523 36591
-2.4981847 2.0248721 0.57852411 35816
-2.4533837 1.9498932 0.56568575 34787
-2.4084172 1.8746376 0.55280071 32990
-2.3632843 1.7991042 0.53986782 32729
-2.2952728 1.7211187 0.52037883 31703
-2.2268808 1.6426985 0.50078136 31185
-2.1120453 1.559165 0.46787491 30157
-1.9961332 1.4748487 0.43466032 28616
-0.48923689 1.0096979 0.002857164 17275
-0.95256633 0.98789096 0.13562445 9580
-0.9778294 0.91537404 0.14286394 149886
-1.8083975 0.94355059 0.38086447 90784
-2.135098 0.91219521 0.47448096 287656
-2.5428216 0.89333606 0.59131444 418986
-2.9588528 0.87796736 0.71052855 25250
-3.3400583 0.86027312 0.81976354 26534
-3.6890829 0.84031653 0.91977745 484001
-4.0475168 0.8237381 1.0224872 550818
-4.3759971 0.80489945 1.1166128 221857
-4.6951475 0.78659654 1.2080665 1335197
-5.0412855 0.77423525 1.3072517 877730
-5.3419461 0.7568891 1.3934071 680612
-5.6683168 0.74533439 1.4869288 221600
-5.9190636 0.72359324 1.5587811 812196
-6.2122326 0.71022344 1.6427883 944298
-6.5129089 0.69980907 1.7289475 22675
-6.7136374 0.67429447 1.7864667 18805
-6.7136374 0.61551476 1.7864667 533597
-6.7289133 0.55940032 1.7908443 139605
-6.7289133 0.50066543 1.7908443 402776
-6.7289133 0.44193006 1.7908443 8795
-6.7136374 0.38039541 1.7864667 401499
-6.7136374 0.3216157 1.7864667 271449
-6.7136374 0.26283574 1.7864667 8534
-6.7136374 0.20405626 1.7864667 338272
1.1670498 7.1133351 -0.43126193 40681
1.0482764 7.0191355 -0.40123025 42482
0.98926324 6.9317179 -0.38630944 43006
0.95985007 6.8475733 -0.37887198 44031
0.90120709 6.7607889 -0.36404437 44287
0.90120709 6.6798143 -0.36404437 44543
0.87197739 6.5961971 -0.3566536 44543
0.87197739 6.5153074 -0.3566536 44543
0.90120709 6.4368906 -0.36404437 44799
0.90120709 6.355916 -0.36404437 44287
0.90120709 6.2749419 -0.36404437 44031
0.95985007 6.1984196 -0.37887198 43519
0.98926324 6.1194239 -0.38630944 43007
1.0482764 6.0423331 -0.40123025 41727
1.1075377 5.9649181 -0.41621479 40703
1.1969002 5.8890963 -0.43880934 40950
1.3169348 5.814642 -0.46916041 39158
-1.8432916 4.5249848 0.32989663 37347
-1.961735 4.4501615 0.35984495 38121
-2.0556917 4.3763232 0.38360187 39405
-2.1489482 4.3030357 0.40718174 40698
-2.218436 4.2304416 0.42475119 40699
-2.2645454 4.1583328 0.43641004 41726
-2.3333914 4.0864763 0.4538177 42495
-2.3790758 4.0149665 0.46536887 44031
-2.4018555 3.9436035 0.47112876 47359
-2.4472883 3.8725545 0.48261622 47615
-2.4699416 3.8015196 0.48834395 44543
-2.5151238 3.730927 0.4997687 44287
-2.5601406 3.6605935 0.51115066 43775
-2.5601406 3.589638 0.51115066 43263
-2.6049936 3.5196915 0.52249134 44031
-2.627357 3.4494336 0.52814662 43775
-2.6496813 3.3793044 0.53379107 44287
-2.6719644 3.3093028 0.53942508 43775
-2.6719644 3.2386713 0.53942508 43775
-2.6942065 3.1688616 0.54504925 43263
-2.6942065 3.0982943 0.54504925 43519
-2.6942065 3.0277271 0.54504925 43519
-2.7164092 2.9581735 0.55066288 42751
-2.7164092 2.8876705 0.55066288 42495
-2.7164092 2.8171675 0.55066288 41727
-2.7164092 2.7466645 0.55066288 41215
-2.6942065 2.6748908 0.54504925 41215
-2.6942065 2.6043234 0.54504925 41215
-2.6942065 2.5337563 0.54504925 41471
-2.6719644 2.4617233 0.53942508 39935
-2.6719644 2.3910918 0.53942508 40191
-2.6496813 2.3188624 0.53379107 39930
-2.627357 2.246501 0.52814662 38903
-2.6049936 2.1740072 0.52249134 37365
-2.5601406 2.0995765 0.51115066 36336
-2.5151238 2.0248721 0.4997687 35306
-2.4699416 1.9498932 0.48834395 34785
-2.4472883 1.8766592 0.48261622 33250
-2.3790758 1.7991042 0.46536887 32216
-2.3333914 1.7232916 0.4538177 31189
-2.2415121 1.6426985 0.43058619 30414
-2.1489482 1.5615051 0.40718174 29646
-2.0322688 1.4772785 0.37767938 29370
-0.51548314 1.0127368 -0.0058369739 15744
-0.93082821 0.98487854 0.099182062 74349
-1.4566493 0.97278261 0.23213477 18296
-1.7477291 0.93466902 0.30573434 287129
-2.1953163 0.9180696 0.41890591 484523
-2.6049936 0.8991487 0.52249134 25767
-2.9579864 0.87508917 0.61174506 26274
-3.3431242 0.85742545 0.70912659 354219
-3.7161531 0.84031653 0.80344665 549024
-4.1171112 0.82931042 0.90482783 482460
-4.4281015 0.80766416 0.98346037 155294
-4.7494249 0.78933668 1.0647068 680610
-5.0617585 0.77152252 1.14368 1009834
-5.3654737 0.75420022 1.2204736 352931
-5.6609197 0.73734903 1.2951766 485285
-5.9817514 0.72623229 1.3762985 289444
-6.2931094 0.71544409 1.4550239 879789
-6.5797186 0.70239162 1.5274923 223145
-6.7664385 0.67429447 1.5747048 19323
-6.7664385 0.61551476 1.5747048 336987
-6.7664385 0.5567348 1.5747048 139612
-6.7818446 0.50066543 1.5786003 598362
-6.7664385 0.43917537 1.5747048 139604
-6.7818446 0.38319492 1.5786003 73048
-6.7818446 0.32445979 1.5786003 10324
-6.7818446 0.26572442 1.5786003 9302
-6.7818446 0.20698953 1.5786003 535903
1.210093 7.1983824 -0.40099725 39916
1.0603621 7.1005354 -0.36810511 41459
1.0009096 7.0129471 -0.35504481 43007
0.941706 6.925725 -0.34203941 43519
0.88274992 6.8388672 -0.32908815 44031
0.88274992 6.757977 -0.32908815 45055
0.85336423 6.674366 -0.32263291 45311
0.82403982 6.590929 -0.31619087 46079
0.82403982 6.5102081 -0.31619087 45823
0.85336423 6.4319496 -0.32263291 45311
0.85336423 6.3511438 -0.32263291 45311
0.88274992 6.2726378 -0.32908815 45055
0.91219735 6.1939673 -0.3355571 44287
0.97127712 6.1172752 -0.34853539 43263
1.0009096 6.0381942 -0.35504481 43007
1.0603621 5.9609327 -0.36810511 42239
1.1200649 5.8833461 -0.38122082 41983
1.210093 5.8072658 -0.40099725 40443
1.3006938 5.7307014 -0.42090049 39672
1.4836351 5.6587186 -0.46108857 37352
-1.876699 4.5245557 0.27709687 36321
-1.9958007 4.4498048 0.30326062 38115
-2.0902801 4.3760366 0.32401592 39406
-2.1606777 4.3030357 0.33948019 40441
-2.2539308 4.2302928 0.3599661 41978
-2.3002987 4.1582513 0.37015131 40958
-2.3464947 4.0864763 0.38029954 41726
-2.3925197 4.0149665 0.39041004 41471
-2.4383755 3.9437201 0.40048406 42495
-2.4840622 3.8727362 0.41052023 43775
-2.5295808 3.8020127 0.42051953 41471
-2.5522783 3.7312381 0.42550534 42751
-2.5749328 3.6605935 0.43048242 43007
-2.5975473 3.5900779 0.4354499 41983
-2.6201198 3.5196915 0.44040868 42751
-2.6651406 3.4500003 0.45029852 42751
-2.6875899 3.3799345 0.45522976 42751
-2.7099977 3.3099961 0.46015257 43775
-2.7099977 3.239429 0.46015257 43775
-2.7323656 3.1696825 0.46506599 43263
-2.7323656 3.0991793 0.46506599 43007
-2.7323656 3.0286765 0.46506599 43007
-2.7323656 2.9581735 0.46506599 42495
-2.7099977 2.8865926 0.46015257 42495
-2.7099977 2.8160253 0.46015257 41727
-2.7323656 2.7466645 0.46506599 41215
-2.7099977 2.6748908 0.46015257 40447
-2.7099977 2.6043234 0.46015257 41215
-2.7099977 2.5337563 0.46015257 40447
-2.7099977 2.4631891 0.46015257 40447
-2.6875899 2.3910918 0.45522976 39678
-2.6651406 2.3188624 0.45029852 39167
-2.6426504 2.246501 0.4453581 38394
-2.6201198 2.1740072 0.44040868 38645
-2.5749328 2.0995765 0.43048242 38120
-2.5522783 2.0267484 0.42550534 35041
-2.5068429 1.9518418 0.41552413 34025
-2.4612401 1.8766592 0.40550625 33248
-2.3925197 1.7991042 0.39041004 32733
-2.3464947 1.7232916 0.38029954 31700
-2.2539308 1.6426985 0.3599661 30669
-2.1606777 1.5615051 0.33948019 29897
-2.0667267 1.4797034 0.3188417 28101
-0.43510339 1.0036018 -0.039587092 16762
-1.4136908 1.0411296 0.17538501 341117
-1.4879159 0.97574592 0.19169091 2583684
-1.8287437 0.94355059 0.26656222 877199
-2.2073915 0.9180696 0.34974211 287653
-2.5975473 0.896245 0.4354499 419755
-2.9976285 0.87796736 0.52333856 615851
-3.3637488 0.85742545 0.60376579 157091
-3.6983848 0.83466578 0.67727745 417437
-4.083796 0.82094431 0.76194292 548770
-4.4374747 0.80489945 0.83963811 746401
-4.7805247 0.78933668 0.91499829 1206180
-5.1134205 0.77423525 0.98812711 549280
-5.4188981 0.7568891 1.0552325 221085
-5.733295 0.74267697 1.1242977 615842
-6.0220308 0.72623229 1.1877265 1467042
-6.2867966 0.70760655 1.2458898 680870
-6.6086187 0.69980907 1.3165869 681120
-6.7970166 0.67171431 1.3579737 19583
-6.8125629 0.61551476 1.3613886 7512
-6.8125629 0.5567348 1.3613886 8795
-6.828084 0.50066543 1.3647968 205914
-6.828084 0.44193006 1.3647968 8022
-6.828084 0.38319492 1.3647968 335959
-6.828084 0.32445979 1.3647968 205907
-6.828084 0.26572442 1.3647968 206684
-6.828084 0.20698953 1.3647968 339302
1.2524208 7.2836099 -0.36845979 39657
1.1314865 7.1884937 -0.34585059 40945
1.0414531 7.097352 -0.32901764 41978
0.95198506 7.006784 -0.31229091 43263
0.89265126 6.9197569 -0.30119792 44799
0.86307728 6.8359766 -0.29566887 45311
0.83356494 6.7523718 -0.29015115 46847
0.80411422 6.6689405 -0.28464502 45823
0.80411422 6.5883036 -0.28464502 46591
0.80411422 6.5076666 -0.28464502 46591
0.80411422 6.4270291 -0.28464502 46847
0.83356494 6.3487654 -0.29015115 45823
0.83356494 6.2680445 -0.29015115 45823
0.86307728 6.1895332 -0.29566887 45055
0.89265126 6.110858 -0.30119792 44287
0.95198506 6.0340724 -0.31229091 43775
0.9817456 5.954987 -0.31785482 43775
1.0714014 5.8795328 -0.33461666 43007
1.1014124 5.7999516 -0.34022751 40959
1.2220914 5.7254353 -0.36278942 40959
1.3437949 5.6502862 -0.38554358 39667
-1.9085406 4.524128 0.22251011 36828
-2.0519731 4.4490933 0.24932635 37609
-2.1230865 4.375751 0.26262197 38380
-2.2172878 4.3026023 0.28023365 40682
-2.2874794 4.230144 0.29335681 40696
-2.3340583 4.1581693 0.30206501 40440
-2.3804643 4.0864611 0.31074053 40441
-2.4266984 4.015017 0.31938469 40446
-2.4727631 3.9438365 0.3279967 41215
-2.5186579 3.8729174 0.33657721 41727
-2.5415416 3.8020127 0.3408559 42751
-2.5871842 3.7315488 0.34938937 41471
-2.6326606 3.6613426 0.35789135 41471
-2.6326606 3.590517 0.35789135 41471
-2.6779699 3.5206966 0.36636221 42239
-2.7005627 3.4505661 0.37058586 42239
-2.723114 3.3805633 0.37480238 41983
-2.723114 3.3099961 0.37480238 42495
-2.7456257 3.2401853 0.37901077 42495
-2.7456257 3.1696825 0.37901077 42495
-2.7680943 3.1000626 0.38321209 41727
-2.7456257 3.0286765 0.37901077 41727
-2.7680943 2.9591851 0.38321209 41727
-2.7680943 2.8887463 0.38321209 41215
-2.7456257 2.8171675 0.37901077 40703
-2.7680943 2.7478685 0.38321209 40703
-2.7680943 2.6774297 0.38321209 40191
-2.7680943 2.6069908 0.38321209 40447
-2.7456257 2.5351553 0.37901077 40447
-2.7456257 2.4646525 0.37901077 40189
-2.723114 2.3926218 0.37480238 39677
-2.7005627 2.3204601 0.37058586 38390
-2.6779699 2.2481661 0.36636221 38391
-2.6553354 2.17574 0.36213064 38642
-2.6099434 2.1013808 0.35364404 36852
-2.5871842 2.0286212 0.34938937 34791
-2.5415416 1.9537866 0.3408559 34276
-2.4957311 1.8786767 0.33229131 33501
-2.4266984 1.8011992 0.31938469 31965
-2.3804643 1.7254603 0.31074053 31439
-2.3107903 1.6471975 0.2977145 30925
-2.193804 1.5638406 0.27584264 29641
-2.075722 1.4797034 0.25376689 28607
-1.9325582 1.3922598 0.22700101 29114
-0.46051693 1.0066528 -0.048210781 15473
-0.93521911 0.98487854 0.040538918 206180
-1.4932029 0.97574592 0.14485972 4749456
-1.8120147 0.94059563 0.2044642 548235
-2.170275 0.91219521 0.27144414 221603
-2.6099434 0.896245 0.35364404 155817
-2.9905612 0.87508917 0.42480436 1074342
-3.3810537 0.85742545 0.49780989 156585
-3.738569 0.8374939 0.56465113 353439
-4.1057143 0.82094431 0.63329178 811167
-4.461659 0.80489945 0.69983929 24734
-4.8069062 0.78933668 0.76438683 943270
-5.1419349 0.77423525 0.82702309 1597602
-5.4493699 0.7568891 0.88450009 943261
-5.7310739 0.73734903 0.93716872 156828
-6.0900407 0.73149776 1.0042799 485281
-6.3228292 0.70760655 1.0478019 1861289
-6.6626472 0.70239162 1.1113341 1664678
-6.836318 0.67171431 1.1438041 18294
-6.836318 0.61288977 1.1438041 140639
-6.8675838 0.55940032 1.149648 7757
-6.851963 0.49795532 1.146729 466522
-6.8675838 0.44193006 1.149648 74074
-6.8675838 0.38319492 1.149648 204371
-6.851963 0.3216157 1.146729 8281
-6.8831811 0.26860857 1.1525642 204887
-6.851963 0.20405626 1.146729 468577
1.3859947 7.3795342 -0.34789857 37847
1.2024558 7.2768235 -0.31951883 41197
1.0813832 7.1819358 -0.300798 41715
0.99124521 7.0910063 -0.28686062 43519
0.93146724 7.0037127 -0.27761716 44287
0.90167165 6.9197569 -0.2730104 46079
0.84226751 6.8330927 -0.26382506 47359
0.78311062 6.7467899 -0.25467801 47615
0.81265837 6.6689405 -0.25924674 46847
0.78311062 6.5856838 -0.25467801 47103
0.78311062 6.5051303 -0.25467801 46847
0.78311062 6.4245768 -0.25467801 46591
0.78311062 6.3440237 -0.25467801 46335
0.81265837 6.2657552 -0.25924674 45567
0.84226751 6.1873236 -0.26382506 45311
0.87193859 6.1087279 -0.26841304 44799
0.93146724 6.0320182 -0.27761716 44287
0.96132457 5.9530134 -0.28223425 43263
1.021228 5.8757353 -0.29149657 43263
1.0813832 5.7981329 -0.300798 42751
1.1417917 5.7202029 -0.31013906 42239
1.2328839 5.6436048 -0.32422358 41725
-1.9628361 4.5232744 0.16991271 34780
-2.0587921 4.4490933 0.18474926 36838
-2.1540315 4.3754659 0.19947602 37608
-2.2485631 4.3023863 0.21409278 38638
-2.3190017 4.2299957 0.2249839 39675
-2.3890502 4.1580062 0.23581496 39410
-2.4123127 4.0864458 0.23941205 39415
-2.4587104 4.0150681 0.24658689 38398
-2.5279872 3.9440682 0.25729817 40439
-2.5739596 3.8732791 0.26440674 40959
-2.5968821 3.8025038 0.26795152 40959
-2.6197636 3.7318585 0.27148923 40959
-2.6653998 3.661716 0.27854583 41215
-2.6881561 3.5913925 0.28206432 41215
-2.7108705 3.5211978 0.28557625 41727
-2.7335432 3.4511306 0.28908232 41983
-2.7561758 3.3811913 0.29258153 40959
-2.7561758 3.3106885 0.29258153 41727
-2.7787654 3.2409403 0.29607502 42239
-2.7787654 3.1705017 0.29607502 41983
-2.7787654 3.1000626 0.29607502 41471
-2.8013151 3.0305696 0.29956114 40703
-2.7787654 2.9591851 0.29607502 41215
-2.8013151 2.8898201 0.29956114 40959
-2.8013151 2.8194454 0.29956114 39935
-2.8013151 2.7490704 0.29956114 39678
-2.7787654 2.6774297 0.29607502 40191
-2.7787654 2.6069908 0.29607502 40446
-2.7787654 2.536552 0.29607502 39421
-2.7561758 2.4646525 0.29258153 40191
-2.7335432 2.3926218 0.28908232 39165
-2.7335432 2.3220546 0.28908232 38646
-2.7108705 2.2498283 0.28557625 38128
-2.6653998 2.17574 0.27854583 36847
-2.6426032 2.1031818 0.27502087 36588
-2.5968821 2.0286212 0.26795152 35559
-2.5509939 1.9537866 0.26085594 34528
-2.5049372 1.8786767 0.2537345 32991
-2.4355333 1.8011992 0.24300262 32218
-2.3890502 1.7254603 0.23581496 31951
-2.3190017 1.6471975 0.2249839 31185
-2.2249961 1.5661716 0.21044865 27076
-2.1065004 1.4821243 0.19212671 27328
-0.48573723 1.0096979 -0.058483034 14448
-0.93603098 0.98487854 0.011142959 8806
-1.5219553 0.97870398 0.1017416 3763328
-1.817543 0.94059563 0.14744653 21655
-2.2013857 0.91513515 0.20679747 811173
-2.5968821 0.89333606 0.26795152 812720
-3.002429 0.87508917 0.33065891 154260
-3.3735409 0.8545723 0.38804138 551083
-3.7336135 0.83466578 0.44371739 615077
-4.1437526 0.8237381 0.50713497 680351
-4.4814401 0.80489945 0.55934983 484258
-4.8285446 0.78933668 0.61302102 812192
-5.1284432 0.76880598 0.65939152 549022
-5.4923787 0.75957394 0.71566582 156833
-5.7751451 0.74001527 0.75938708 24990
-6.1016669 0.72886729 0.80987537 617121
-6.4021101 0.71544409 0.85633224 1334683
-6.6622038 0.69722271 0.89654839 1009319
-6.8846021 0.67429447 0.93093604 16500
-6.8688722 0.61288977 0.92850554 205663
-6.8846021 0.5567348 0.93093604 8549
-6.8846021 0.49795532 0.93093604 270937
-6.8846021 0.43917537 0.93093604 9816
-6.8846021 0.38039541 0.93093604 599385
-6.9003062 0.32445979 0.93336451 9815
-6.9003062 0.26572442 0.93336451 9812
-6.8846021 0.20405626 0.93093604 206946
1.2730852 7.3655262 -0.28909254 38375
1.15097 7.2700663 -0.27412146 41712
1.0298802 7.1754055 -0.25927517 41971
0.93972784 7.0846868 -0.24822205 43775
0.87993944 6.9975882 -0.24089237 44799
0.82040054 6.9108524 -0.23359257 47359
0.79072386 6.827343 -0.22995423 51967
0.79072386 6.7467899 -0.22995423 49407
0.79072386 6.6662369 -0.22995423 48639
0.76110923 6.5830684 -0.22632323 47359
0.73155594 6.500073 -0.22269978 46847
0.76110923 6.4221296 -0.22632323 47103
0.76110923 6.3416595 -0.22632323 46847
0.79072386 6.2634706 -0.22995423 45567
0.82040054 6.1851182 -0.23359257 45055
0.85013884 6.1066022 -0.2372386 44543
0.87993944 6.0279222 -0.24089237 44031
0.93972784 5.9510441 -0.24822205 44031
0.96971548 5.871954 -0.25189903 44031
1.0298802 5.7945061 -0.25927517 43263
1.0902979 5.7167325 -0.26668251 43007
1.1814026 5.6402855 -0.27785185 43007
-2.0154827 4.5224237 0.11409274 33753
-2.111496 4.4483848 0.1258646 34783
-2.2067952 4.374897 0.13754819 36831
-2.2778039 4.3021703 0.14625427 36842
-2.3484197 4.2298474 0.15491161 36851
-2.4186423 4.1579251 0.1635213 38895
-2.4652429 4.0864153 0.16923462 38386
-2.5116711 4.0151691 0.1749267 38646
-2.557929 3.9441838 0.18059854 40440
-2.6040173 3.8734593 0.18624862 40191
-2.6269987 3.8027489 0.18906645 40959
-2.6728342 3.7324767 0.19468611 40191
-2.6956897 3.6620889 0.19748808 41213
-2.7185032 3.5918293 0.20028479 40959
-2.7412746 3.521698 0.20307699 41215
-2.7640061 3.4516943 0.20586357 41471
-2.7866943 3.3818181 0.20864506 41471
-2.7866943 3.3113792 0.20864506 41471
-2.8093421 3.241694 0.21142185 41215
-2.8093421 3.1713192 0.21142185 41471
-2.8093421 3.1009445 0.21142185 41215
-2.8319485 3.0315137 0.21419394 41215
-2.8093421 2.9601951 0.21142185 40444
-2.8319485 2.8908918 0.21419394 40447
-2.8319485 2.820581 0.21419394 39935
-2.8319485 2.7502699 0.21419394 39678
-2.8319485 2.6799591 0.21419394 39678
-2.8093421 2.6083207 0.21142185 39935
-2.7866943 2.536552 0.20864506 39935
-2.7866943 2.4661131 0.20864506 39423
-2.7640061 2.3941495 0.20586357 38394
-2.7412746 2.3220546 0.20307699 38903
-2.7185032 2.2498283 0.20028479 37624
-2.6956897 2.1774697 0.19748808 37873
-2.6499379 2.1031818 0.19187832 36844
-2.6040173 2.0286212 0.18624862 34534
-2.557929 1.9537866 0.18059854 33764
-2.5348217 1.8806908 0.17776518 33246
-2.4884787 1.8053772 0.17208335 32727
-2.3952785 1.7254603 0.16065669 32976
-2.3249242 1.6471975 0.15203124 30420
-2.2305086 1.5661716 0.14045596 30156
-2.111496 1.4821243 0.1258646 28355
-0.45658097 1.0066528 -0.077031866 13937
-0.93591911 0.98487854 -0.018263996 9320
-1.7476913 1.0050738 0.081261329 284558
-1.8457135 0.94355059 0.093279146 18819
-2.2305086 0.9180696 0.14045596 25503
-2.6040173 0.89333606 0.18624862 746410
-3.0113337 0.87508917 0.23618641 157604
-3.427176 0.86027312 0.28716961 616623
-3.7666466 0.8374939 0.32879013 615589
-4.1576371 0.8237381 0.37672627 1009058
-4.477118 0.80213046 0.41589519 24732
-4.8644791 0.79207325 0.46338591 23195
-5.1466246 0.76880598 0.49797782 614555
-5.4941545 0.7568891 0.54058582 417430
-5.8136568 0.74267697 0.57975715 286357
-6.1240945 0.72886729 0.6178177 25755
-6.4258494 0.71544409 0.65481454 1270435
-6.7192812 0.70239162 0.69078982 1926828
-6.8946481 0.67171431 0.71228921 16757
-6.926219 0.61813593 0.71616 138846
-6.9104462 0.5567348 0.71422601 9808
-6.9104462 0.49795532 0.71422601 468311
-6.9104462 0.43917537 0.71422601 467798
-6.9104462 0.38039541 0.71422601 534097
-6.9104462 0.3216157 0.71422601 534106
-6.926219 0.26572442 0.71616 335707
-6.9104462 0.20405626 0.71422601 10590
1.374114 7.458199 -0.2573702 37853
1.2508093 7.3620429 -0.24617034 39911
1.0981367 7.2633362 -0.23230381 41204
1.0073013 7.1721506 -0.22405374 41975
0.91703486 7.0815363 -0.21585524 44799
0.88707185 6.9975882 -0.2131339 45823
0.7975567 6.9078965 -0.20500351 49919
0.76784265 6.8244767 -0.20230453 56319
0.76784265 6.7440071 -0.20230453 51711
0.73819011 6.6608448 -0.19961116 50431
0.73819011 6.5804586 -0.19961116 48639
0.73819011 6.500073 -0.19961116 48127
0.73819011 6.4196868 -0.19961116 47359
0.76784265 6.3416595 -0.20230453 46335
0.76784265 6.2611904 -0.20230453 47103
0.76784265 6.1807213 -0.20230453 45823
0.7975567 6.1023645 -0.20500351 44799
0.85717124 6.0258808 -0.21041802 44543
0.91703486 5.9490781 -0.21585524 44543
0.94706094 5.8700695 -0.218582 44543
0.97714925 5.790895 -0.22131521 44287
1.037516 5.7132769 -0.22679791 44031
1.1285424 5.6369796 -0.23506545 44543
1.4361604 5.5712957 -0.26300481 39662
-2.1623061 4.447679 0.063829072 33757
-2.2575691 4.3743305 0.072481275 34279
-2.3285525 4.3017402 0.078928567 35815
-2.399143 4.2295523 0.085339874 36074
-2.4459856 4.1578441 0.089594662 36587
-2.5159264 4.0863853 0.095946848 37356
-2.5623395 4.0152698 0.1001629 38391
-2.6085825 3.9444146 0.10436253 39419
-2.6546574 3.8738189 0.10854705 39416
-2.6776302 3.8032374 0.11063426 40703
-2.7005627 3.732785 0.11271694 39933
-2.7234528 3.662461 0.11479568 40702
-2.7691085 3.5927002 0.11894242 41215
-2.7691085 3.5221972 0.11894242 41215
-2.791873 3.4522567 0.1210099 41471
-2.8145971 3.3824437 0.12307392 40959
-2.8145971 3.3120689 0.12307392 41471
-2.8372791 3.2424462 0.12513457 41727
-2.8599205 3.1729503 0.12719074 40703
-2.8599205 3.1027031 0.12719074 41727
-2.8599205 3.0324559 0.12719074 40703
-2.8599205 2.962209 0.12719074 40191
-2.8599205 2.8919618 0.12719074 39935
-2.8599205 2.8217149 0.12719074 39423
-2.8372791 2.7502699 0.12513457 39935
-2.8372791 2.6799591 0.12513457 40191
-2.8372791 2.6096482 0.12513457 40190
-2.8145971 2.537946 0.12307392 39677
-2.8145971 2.4675713 0.12307392 39933
-2.791873 2.3956742 0.1210099 39417
-2.7691085 2.3236465 0.11894242 40180
-2.7463009 2.2514873 0.11687122 37623
-2.7005627 2.1774697 0.11271694 37361
-2.6546574 2.1031818 0.10854705 36335
-2.6316414 2.0304904 0.1064571 34535
-2.5854828 1.9557281 0.10226469 34019
-2.5623395 1.8827009 0.1001629 32479
-2.492656 1.8053772 0.093833409 32473
-2.4225852 1.7276249 0.087469205 31952
-2.3285525 1.6471975 0.078928567 31184
-2.2575691 1.5684986 0.072481275 29385
-2.1383789 1.4845405 0.06165627 28102
-1.9938749 1.3972881 0.048531119 28858
-0.45393607 1.0066528 -0.091335416 13935
-0.93488365 0.98487854 -0.047652926 8296
-1.7986498 1.0108726 0.030799817 282763
-1.8477327 0.94355059 0.035257835 153477
-2.1861882 0.91219521 0.065998442 417957
-2.6316414 0.896245 0.1064571 221091
-3.0172668 0.87508917 0.14148156 484519
-3.4345052 0.86027312 0.17937766 353704
-3.754107 0.83466578 0.20840621 549283
-4.167419 0.8237381 0.24594577 353183
-4.4879727 0.80213046 0.27506021 417693
-4.8766341 0.79207325 0.31036022 24481
-5.1783509 0.77152252 0.33776429 811934
-5.5264778 0.75957394 0.36938414 1007773
-5.8114314 0.74001527 0.39526412 811935
-6.1404791 0.72886729 0.42515028 812708
-6.4432468 0.71544409 0.45265049 1140128
-6.7376637 0.70239162 0.47939116 1731494
-6.9136195 0.67171431 0.49537155 608893
-6.9294705 0.61551476 0.49681118 269911
-6.9294705 0.5567348 0.49681118 9302
-6.9294705 0.49795532 0.49681118 468060
-6.9294705 0.43917537 0.49681118 138838
-6.9452968 0.38319492 0.49824876 73038
-6.9452968 0.32445979 0.49824876 402260
-6.9452968 0.26572442 0.49824876 269652
-6.9452968 0.20698953 0.49824876 272482
1.5688952 7.5626211 -0.22517912 35791
1.3505235 7.4546065 -0.21224448 38111
1.2271886 7.3585672 -0.20493966 40169
1.1048915 7.2633362 -0.19769587 41460
0.98361892 7.1689024 -0.19051252 42749
0.92336255 7.0815363 -0.18694395 45311
0.86335766 6.9945354 -0.18338977 46079
0.77381831 6.9049463 -0.17808616 52223
0.7440958 6.8216162 -0.17632554 56319
0.71443474 6.7384596 -0.17456882 52991
0.71443474 6.6581573 -0.17456882 51455
0.71443474 6.5778551 -0.17456882 50175
0.71443474 6.4975524 -0.17456882 48383
0.71443474 6.4172497 -0.17456882 47615
0.7440958 6.3393011 -0.17632554 46591
0.7440958 6.2589149 -0.17632554 46847
0.77381831 6.1807213 -0.17808616 45567
0.83344901 6.1044807 -0.18161823 45567
0.86335766 6.0258808 -0.18338977 45311
0.89332891 5.9471169 -0.18516469 44543
0.92336255 5.8681884 -0.18694395 44287
0.95345944 5.7890949 -0.18872623 44543
0.98361892 5.7098355 -0.19051252 44031
1.0441279 5.6320472 -0.1940968 44287
1.3195914 5.5649347 -0.21041285 40178
-2.3062093 4.3737659 0.0043457635 34262
-2.3770976 4.3013115 0.0085446313 34784
-2.4475927 4.2292576 0.012720158 34535
-2.4943733 4.1576824 0.015490856 36585
-2.5642214 4.0863552 0.01962842 37098
-2.6105735 4.0153699 0.02237344 39671
-2.6567571 3.9446445 0.02510866 39413
-2.6797841 3.8739982 0.026473239 38911
-2.7257147 3.8037243 0.029193284 40697
-2.7486167 3.7333996 0.030550128 40703
-2.7714779 3.6632032 0.031903893 40959
-2.7942963 3.5931344 0.033255305 41215
-2.7942963 3.5226958 0.033255305 40959
-2.8170738 3.4528184 0.034604527 41983
-2.8398097 3.3830681 0.035951704 41215
-2.8625045 3.3134444 0.037295666 41471
-2.8625045 3.2431972 0.037295666 42239
-2.8851581 3.1737633 0.038637258 41215
-2.8851581 3.10358 0.038637258 41727
-2.8851581 3.0333967 0.038637258 41215
-2.8851581 2.9632132 0.038637258 40703
-2.8851581 2.8930297 0.038637258 39679
-2.8851581 2.8228464 0.038637258 39935
-2.8625045 2.7514677 0.037295666 40446
-2.8625045 2.6812205 0.037295666 39935
-2.8625045 2.6109734 0.037295666 40447
-2.8398097 2.5393372 0.035951704 39933
-2.8170738 2.4675713 0.034604527 40443
-2.8170738 2.3971965 0.034604527 39420
-2.7714779 2.3236465 0.031903893 39157
-2.7486167 2.2514873 0.030550128 37875
-2.7257147 2.1791966 0.029193284 36850
-2.6797841 2.1049793 0.026473239 36839
-2.6336865 2.0304904 0.023742689 35308
-2.6105735 1.9576659 0.02237344 33508
-2.5642214 1.8827009 0.01962842 33246
-2.4943733 1.8053772 0.015490856 32474
-2.4241374 1.7276249 0.011330765 31961
-2.3535125 1.6494408 0.0071473764 30418
-2.2349265 1.5661716 0.00012395819 30669
-2.1152325 1.4821243 -0.0069657499 28360
-1.9944154 1.3972881 -0.014121979 28092
-0.45084316 1.0066528 -0.10554883 12139
-0.93292552 0.98487854 -0.076994829 8811
-1.7987297 1.0108726 -0.025712358 12133
-1.8479284 0.94355059 -0.022798274 2189458
-2.2349265 0.9180696 0.00012395819 222387
-2.6567571 0.8991487 0.02510866 26536
-3.0202219 0.87508917 0.046637069 746407
-3.4384449 0.86027312 0.071408682 90017
-3.821866 0.84313488 0.094118714 287905
-4.1730881 0.8237381 0.11492256 286364
-4.4943976 0.80213046 0.13395381 810398
-4.8648057 0.78933668 0.15589286 942239
-5.1864052 0.77152252 0.17494163 1009829
-5.5353537 0.75957394 0.19561094 417692
-5.8385878 0.74267697 0.21357049 155035
-6.1165509 0.72359324 0.23003496 680606
-6.4376483 0.71283555 0.24905248 680605
-6.7493973 0.70239162 0.26751778 876440
-6.9257684 0.67171431 0.27796495 742274
-6.9416566 0.61551476 0.27890602 8800
-6.9416566 0.5567348 0.27890602 270432
-6.9416566 0.49795532 0.27890602 336730
-6.95752 0.44193006 0.27984574 8278
-6.9416566 0.38039541 0.27890602 400726
-6.9416566 0.3216157 0.27890602 664656
-6.9416566 0.26283574 0.27890602 9813
-6.9416566 0.20405626 0.27890602 403036
1.4498407 7.54776 -0.17230853 38100
1.2946413 7.447444 -0.16800159 38374
1.1716591 7.3516369 -0.16458845 40690
1.0497094 7.2566352 -0.16120417 43257
0.95891702 7.1656609 -0.15868421 43775
0.89870423 7.078393 -0.15701318 45311
0.83874255 6.9914894 -0.15534934 48127
0.77903038 6.9049463 -0.15369169 53759
0.74926716 6.8216162 -0.15286592 516095
0.71956557 6.7384596 -0.15204172 54271
0.71956557 6.6581573 -0.15204172 51967
0.71956557 6.5778551 -0.15204172 49919
0.68992585 6.4950371 -0.15121908 48383
0.68992585 6.4148173 -0.15121908 47615
0.68992585 6.3345981 -0.15121908 47871
0.74926716 6.2589149 -0.15286592 47615
0.77903038 6.1807213 -0.15369169 47103
0.8088553 6.1023645 -0.15451957 46079
0.83874255 6.0238438 -0.15534934 45567
0.89870423 5.9471169 -0.15701318 44799
0.92877907 5.8681884 -0.15784773 45311
0.95891702 5.7890949 -0.15868421 45823
0.98911768 5.7098355 -0.15952228 46079
1.0497094 5.6320472 -0.16120417 46079
1.2023076 5.5586276 -0.16543889 40699
-2.4467847 4.3006711 -0.064167477 34018
-2.4936292 4.2289643 -0.062867574 35557
-2.5635726 4.1574407 -0.06092605 36075
-2.6099882 4.0863252 -0.059637725 38387
-2.6562347 4.01547 -0.058354519 38388
-2.6792934 3.9447589 -0.057714555 40188
-2.7252867 3.8743558 -0.056438576 39935
-2.74822 3.8039668 -0.055801772 40447
-2.7711127 3.7337062 -0.055166777 40959
-2.793962 3.6635735 -0.054532107 41727
-2.8167708 3.5935681 -0.053899683 41727
-2.8395376 3.5236897 -0.053267319 41471
-2.8622634 3.4539385 -0.052636899 42239
-2.8622634 3.3836913 -0.052636899 42239
-2.884948 3.3141303 -0.052006848 42239
-2.9075913 3.2446949 -0.051378336 41983
-2.9075913 3.1745751 -0.051378336 41727
-2.9075913 3.1044552 -0.051378336 41727
-2.9075913 3.0343356 -0.051378336 41983
-2.9075913 2.9642158 -0.051378336 41215
-2.9075913 2.8940959 -0.051378336 40959
-2.884948 2.8228464 -0.052006848 41215
-2.884948 2.7526629 -0.052006848 41215
-2.884948 2.6824794 -0.052006848 40447
-2.8622634 2.6109734 -0.052636899 40702
-2.8395376 2.5393372 -0.053267319 41215
-2.8395376 2.4690266 -0.053267319 40191
-2.8167708 2.3971965 -0.053899683 40190
-2.793962 2.3252354 -0.054532107 39162
-2.7711127 2.2531435 -0.055166777 37621
-2.7252867 2.1791966 -0.056438576 37618
-2.7023113 2.1067739 -0.057075929 36078
-2.6562347 2.0323563 -0.058354519 35558
-2.6099882 1.9576659 -0.059637725 34024
-2.5403013 1.8806908 -0.061572265 34784
-2.4936292 1.8053772 -0.062867574 32730
-2.4232969 1.7276249 -0.064819433 31448
-2.3525755 1.6494408 -0.066781789 30671
-2.2576654 1.5684986 -0.069415748 29645
-2.1139698 1.4821243 -0.073403396 28865
-0.50179523 1.0127368 -0.11814585 12142
-0.95636815 0.98789096 -0.10553038 8552
-1.7475823 0.93169737 -0.083572067 4819879
-2.2099457 0.91513515 -0.07074064 158637
-2.6331329 0.896245 -0.058995783 943018
-3.0201964 0.87508917 -0.048253443 814255
-3.3955739 0.8545723 -0.037836209 353962
-3.7808721 0.8374939 -0.027142856 681897
-4.1746387 0.8237381 -0.016215065 746405
-4.496388 0.80213046 -0.0072858636 1008284
-4.8673019 0.78933668 0.0030086352 746915
-5.1893411 0.77152252 0.011945075 811942
-5.5387664 0.75957394 0.021643355 23447
-5.8424153 0.74267697 0.030069156 222116
-6.1379218 0.72623229 0.038270656 943787
-6.4422946 0.71283555 0.046718098 548509
-6.738266 0.69980907 0.054932628 548250
-6.9469919 0.67429447 0.060725573 14956
-6.9628773 0.61813593 0.061164927 140631
-6.9469919 0.5567348 0.060725573 269656
-6.9469919 0.49795532 0.060725573 597848
-6.9628773 0.44193006 0.061164927 335192
-6.9787378 0.38599014 0.061605439 73305
-6.9628773 0.32445979 0.061164927 9562
-6.9628773 0.26572442 0.061164927 730201
-6.9628773 0.20698953 0.061164927 469862
1.3922364 7.5403767 -0.12691171 37597
1.2684249 7.4438734 -0.12736623 40423
1.1456556 7.3481827 -0.12781695 41456
1.0239164 7.2532949 -0.12826341 43007
0.93327892 7.1624265 -0.12859617 44543
0.87316912 7.0752563 -0.1288172 45823
0.81330973 6.9884496 -0.12903655 48383
0.78347361 6.9049463 -0.12914591 55295
0.72398627 6.8187623 -0.12936459 1567487
0.69433534 6.7356949 -0.12947337 54015
0.69433534 6.6554756 -0.12947337 50431
0.69433534 6.5752563 -0.12947337 49151
0.69433534 6.4950371 -0.12947337 48639
0.69433534 6.4148173 -0.12947337 48383
0.72398627 6.3369474 -0.12936459 47871
0.72398627 6.2566447 -0.12936459 47103
0.75369906 6.1785293 -0.12925543 47103
0.81330973 6.1023645 -0.12903655 46591
0.84320831 6.0238438 -0.12892714 46079
0.87316912 5.9451599 -0.1288172 46079
0.9031927 5.8663116 -0.12870671 45567
0.93327892 5.7872987 -0.12859617 46079
0.96342826 5.7081203 -0.12848559 45311
0.9936403 5.6287761 -0.12837462 46591
1.1456556 5.5554938 -0.12781695 44543
-2.4200654 4.3723636 -0.14090507 33235
-2.4904239 4.3002462 -0.14116336 34526
-2.5603938 4.2285266 -0.14141978 36066
-2.606827 4.1572804 -0.14159004 36591
-2.653091 4.0862951 -0.14176011 37358
-2.6991851 4.0155697 -0.14192945 39416
-2.7221692 3.9449875 -0.14201409 39931
-2.7680123 3.8747122 -0.14218235 39935
-2.7908704 3.804451 -0.14226569 40191
-2.8136878 3.7343178 -0.14235003 40959
-2.8364632 3.6643116 -0.14243311 41727
-2.8591979 3.5944326 -0.14251682 41471
-2.8591979 3.5241857 -0.14251682 41983
-2.881891 3.4544969 -0.14259963 42495
-2.9045427 3.3849347 -0.14268267 41983
