1.97258 0.655472 -0.328047
1.99091 0.586899 -0.343719
1.99091 0.515186 -0.343719
1.95422 0.436792 -0.31235
1.9174 0.358109 -0.280863
1.89894 0.282636 -0.265078
1.86192 0.203449 -0.233418
1.82476 0.123969 -0.20164
1.76876 0.040451 -0.153752
1.73125 -0.112351 -0.121677
1.71245 -0.188967 -0.105597
1.6936 -0.265724 -0.0894844
1.6936 -0.338508 -0.0894844
1.63687 -0.423872 -0.0409684
1.59887 -0.505422 -0.00847159
1.56073 -0.587279 0.0241459
1.50324 -0.673908 0.0733039
1.38729 -0.774757 0.172457
0.348041 2.32121 1.04091
0.631341 2.03752 0.817293
0.717062 1.96927 0.749631
0.780915 1.89943 0.69923
0.844396 1.83 0.649122
0.928464 1.76321 0.582765
0.94938 1.69006 0.566256
0.99109 1.61941 0.533333
1.03264 1.54903 0.500538
1.05335 1.47643 0.484187
1.07403 1.40397 0.467867
1.05335 1.32638 0.484187
1.01188 1.24592 0.516919
1.03264 1.17355 0.500538
0.99109 1.09272 0.533333
0.970255 1.01453 0.549779
0.970255 0.939216 0.549779
1.05335 0.876237 0.484187
1.13582 0.813741 0.419097
1.19725 0.748552 0.370607
1.92695 0.717998 -0.20537
2.05943 0.667995 -0.309942
2.09698 0.602837 -0.339575
2.05943 0.524963 -0.309942
2.05943 0.453447 -0.309942
1.96498 0.364947 -0.235386
1.90789 0.282636 -0.190321
1.88878 0.207024 -0.175244
1.85048 0.127624 -0.145006
1.81202 0.0479288 -0.114655
1.73469 -0.112351 -0.0536155
1.73469 -0.184999 -0.0536155
1.71527 -0.261683 -0.038284
1.69581 -0.338508 -0.022924
1.67632 -0.415477 -0.00753584
1.59797 -0.505422 0.0543055
1.53882 -0.591658 0.100992
1.4992 -0.673908 0.132264
1.41952 -0.765596 0.195161
0.374926 2.32641 1.00429
0.420048 2.25275 0.971464
0.598767 2.03752 0.84145
0.730977 1.97336 0.74527
0.796504 1.90365 0.697601
0.86165 1.83435 0.650209
0.926417 1.76544 0.603092
0.947923 1.69235 0.587447
0.99081 1.62177 0.556248
1.03353 1.55145 0.525168
1.05483 1.47892 0.509672
1.05483 1.40397 0.509672
1.07609 1.33165 0.494208
1.05483 1.25407 0.509672
1.03353 1.17633 0.525168
0.99081 1.09559 0.556248
0.969387 1.01748 0.571832
0.947923 0.939216 0.587447
1.01219 0.873162 0.540692
1.11849 0.813741 0.463366
1.20279 0.751722 0.402036
1.79527 0.768651 -0.0289775
1.95313 0.721088 -0.143823
2.01174 0.658612 -0.186454
2.16644 0.61233 -0.298996
2.07001 0.524963 -0.228851
2.08937 0.45676 -0.24293
2.05062 0.378547 -0.214744
1.9727 0.293102 -0.15806
1.93353 0.214153 -0.129559
1.87449 0.131272 -0.0866139
1.85474 0.0553794 -0.0722444
1.81513 -0.0244498 -0.0434274
1.73546 -0.112351 0.0145305
1.73546 -0.184999 0.0145305
1.71545 -0.334399 0.0290859
1.67532 -0.415477 0.0582811
1.61484 -0.501136 0.102279
1.55402 -0.587279 0.146525
1.49285 -0.673908 0.191021
1.43134 -0.761028 0.235768
0.21846 2.39537 1.09635
0.381584 2.32985 0.987206
0.47379 2.25991 0.925515
0.35842 2.0966 1.0027
0.610743 2.0415 0.833885
0.723647 1.97541 0.758345
0.746096 1.90154 0.743324
0.879879 1.83867 0.653815
0.902026 1.76544 0.638998
0.946189 1.69465 0.609449
0.990184 1.62412 0.580014
1.03401 1.55387 0.550693
1.05586 1.48141 0.536073
1.05586 1.40653 0.536073
1.05586 1.33165 0.536073
1.05586 1.25677 0.536073
1.01212 1.17633 0.56534
0.990184 1.09845 0.580014
0.968208 1.02042 0.594717
0.968208 0.94525 0.594717
1.03401 0.879306 0.550693
1.12116 0.816858 0.492385
1.20764 0.754886 0.434523
1.77457 0.765582 0.0552097
1.95728 0.721088 -0.0670328
2.01751 0.658612 -0.107329
2.03751 0.590098 -0.120713
2.0774 0.524963 -0.147405
2.0973 0.45676 -0.160716
2.0774 0.381931 -0.147405
2.01751 0.300046 -0.107329
1.95728 0.217708 -0.0670328
1.93712 0.142175 -0.0535502
1.87645 0.059094 -0.0129539
1.85615 -0.0168653 0.000627286
1.77457 -0.104576 0.0552097
1.77457 -0.177089 0.0552097
1.71299 -0.334399 0.0964127
1.69238 -0.411292 0.110199
1.60958 -0.501136 0.165598
1.58878 -0.578547 0.179513
1.5052 -0.669444 0.235436
1.4421 -0.75647 0.277655
0.247227 2.40035 1.05991
0.389904 2.33329 0.972357
0.460612 2.26169 0.928968
0.507518 2.18867 0.900184
0.623982 2.04546 0.828716
0.716339 1.97744 0.772043
0.762248 1.90576 0.743871
0.876244 1.84083 0.673918
0.89891 1.76767 0.660009
0.944113 1.69694 0.632271
0.989143 1.62648 0.604639
1.034 1.55629 0.577113
1.05636 1.48389 0.56339
1.07868 1.41163 0.549693
1.05636 1.33427 0.56339
1.034 1.25677 0.577113
1.034 1.18189 0.577113
0.989143 1.10131 0.604639
0.966649 1.02335 0.618441
0.944113 0.94525 0.632271
1.034 0.882369 0.577113
1.1232 0.819969 0.522378
1.21171 0.758044 0.468059
1.79201 0.768651 0.111967
1.93773 0.717998 0.0225432
2.02016 0.658612 -0.0280405
2.08159 0.596479 -0.0657338
2.06115 0.52171 -0.0531922
2.06115 0.450129 -0.0531922
2.06115 0.378547 -0.0531922
2.02016 0.300046 -0.0280405
1.97902 0.221256 -0.00279636
1.93773 0.142175 0.0225432
1.91703 0.0665035 0.0352455
1.87551 -0.0130839 0.0607243
1.81294 -0.0968285 0.09912
1.77103 -0.177089 0.124836
1.77103 -0.249602 0.124836
1.70788 -0.334399 0.163589
1.68675 -0.411292 0.176555
1.64437 -0.49259 0.20256
1.58051 -0.578547 0.241751
1.51628 -0.664989 0.281162
1.40843 -0.761028 0.347344
0.254286 2.40366 1.0414
0.423785 2.33841 0.946336
0.471785 2.26524 0.919415
0.495715 2.19051 0.905995
0.327215 2.1005 1.00049
0.614664 2.04744 0.839285
0.708989 1.97948 0.786384
0.779253 1.90995 0.746978
0.84911 1.84083 0.7078
0.895456 1.76989 0.681808
0.941624 1.69922 0.655915
1.01054 1.63117 0.617263
1.01054 1.55629 0.617263
1.05627 1.48637 0.591618
1.07907 1.41418 0.578832
1.07907 1.33951 0.578832
1.05627 1.26216 0.591618
1.01054 1.18189 0.617263
0.987615 1.10416 0.630122
0.964642 1.02629 0.643007
0.941624 0.948259 0.655915
1.03343 0.885426 0.604428
1.10182 0.819969 0.566071
1.1924 0.758044 0.51527
1.80765 0.771714 0.17022
1.93535 0.717998 0.0986
1.99868 0.655472 0.0630864
2.0407 0.590098 0.0395205
2.06165 0.52171 0.0277683
2.08257 0.453447 0.0160407
2.06165 0.378547 0.0277683
2.06165 0.306965 0.0277683
1.99868 0.224797 0.0630864
1.99868 0.153018 0.0630864
1.9565 0.073885 0.0867399
1.89294 -0.00930929 0.122385
1.82903 -0.0929656 0.158227
1.76477 -0.177089 0.194271
1.72172 -0.330297 0.218411
1.70014 -0.407114 0.230515
1.65686 -0.488329 0.254791
1.5698 -0.578547 0.303614
1.50408 -0.664989 0.340474
1.41587 -0.75647 0.389945
0.287683 2.40859 1.01257
0.386306 2.33841 0.962243
0.484155 2.26878 0.912312
0.484155 2.19235 0.912312
0.337091 2.10438 0.987357
0.581239 2.04744 0.86277
0.677569 1.97948 0.813613
0.725453 1.90786 0.789178
0.844355 1.84298 0.728502
0.891596 1.7721 0.704395
0.938654 1.7015 0.680382
0.985531 1.63117 0.65646
1.03223 1.56111 0.63263
1.03223 1.48637 0.63263
1.05551 1.41418 0.62075
1.05551 1.33951 0.62075
1.05551 1.26485 0.62075
1.03223 1.18742 0.63263
1.0089 1.10985 0.644535
0.962115 1.02921 0.66841
0.938654 0.951261 0.680382
1.0089 0.885426 0.644535
1.12509 0.826173 0.585244
1.19427 0.761196 0.549941
1.7777 0.768651 0.252219
1.90836 0.714902 0.185545
1.97314 0.652328 0.152485
2.01614 0.586899 0.130546
2.03757 0.518451 0.119607
2.05897 0.450129 0.108688
2.08033 0.381931 0.0977885
2.03757 0.303509 0.119607
2.01614 0.228333 0.130546
1.99466 0.153018 0.141506
1.97314 0.0775661 0.152485
1.90836 -0.00554085 0.185545
1.84321 -0.0891094 0.218791
1.79958 -0.169207 0.241056
1.75578 -0.249602 0.263405
1.75578 -0.322115 0.263405
1.68978 -0.407114 0.297084
1.62341 -0.49259 0.330952
1.57896 -0.574193 0.353637
1.51197 -0.660542 0.387823
1.42205 -0.75192 0.433705
0.272913 2.41023 1.01145
0.398194 2.34181 0.953597
0.472775 2.27054 0.919159
0.472775 2.19419 0.919159
0.497537 2.11976 0.907725
0.596107 2.05138 0.862211
0.669531 1.98151 0.828308
0.718243 1.90995 0.805815
0.815104 1.84298 0.761089
0.887259 1.77432 0.727772
0.958999 1.70605 0.694646
0.982821 1.63351 0.683647
1.03033 1.56351 0.661711
1.05401 1.49131 0.650774
1.05401 1.41672 0.650774
1.05401 1.34212 0.650774
1.05401 1.26753 0.650774
1.03033 1.19018 0.661711
0.982821 1.10985 0.683647
0.958999 1.03213 0.694646
0.911219 0.951261 0.716709
1.0066 0.888477 0.672668
1.10125 0.826173 0.628963
1.17176 0.761196 0.596404
1.76643 0.768651 0.321818
1.87751 0.7118 0.270526
1.96564 0.652328 0.229833
2.00946 0.586899 0.209598
2.05312 0.52171 0.189438
2.07489 0.453447 0.179386
2.07489 0.381931 0.179386
2.07489 0.310416 0.179386
2.03131 0.231862 0.19951
2.00946 0.15662 0.209598
1.98757 0.0812395 0.219706
1.8996 -0.00554085 0.260325
1.85537 -0.0852613 0.280747
1.78872 -0.169207 0.311522
1.74409 -0.249602 0.332134
1.69928 -0.330297 0.352822
1.67681 -0.407114 0.363196
1.63176 -0.488329 0.384001
1.58653 -0.569848 0.404883
1.51838 -0.656103 0.436354
1.40393 -0.75192 0.489201
-0.289656 2.45532 1.23824
0.258585 2.41187 1.01076
0.38579 2.3435 0.95798
0.436324 2.27054 0.937012
0.48666 2.19786 0.916126
0.411083 2.11593 0.947486
0.561797 2.05138 0.884949
0.661299 1.98354 0.843663
0.71076 1.91204 0.82314
0.784595 1.84298 0.792504
0.882379 1.77652 0.751931
0.955223 1.70832 0.721705
0.979412 1.63584 0.711668
1.02765 1.5659 0.691653
1.02765 1.49131 0.691653
1.0517 1.41925 0.681673
1.0517 1.34473 0.681673
1.02765 1.26753 0.691653
1.02765 1.19294 0.691653
1.00355 1.11552 0.701651
0.955223 1.03504 0.721705
0.930988 0.957249 0.73176
1.00355 0.891522 0.701651
1.0757 0.826173 0.671714
1.17126 0.764342 0.632062
1.7297 0.765582 0.40035
1.88792 0.714902 0.334701
1.97741 0.655472 0.297569
2.0441 0.593291 0.269898
2.0441 0.52171 0.269898
2.08835 0.45676 0.251534
2.08835 0.38531 0.251534
2.0441 0.306965 0.269898
2.0441 0.235384 0.269898
2.02191 0.160214 0.279104
1.99968 0.0849068 0.288328
1.91035 -0.00178051 0.325392
1.86544 -0.0814199 0.344029
1.79776 -0.165277 0.372111
1.77512 -0.241586 0.381506
1.68412 -0.402944 0.419264
1.63837 -0.484076 0.438248
1.54635 -0.574193 0.476431
1.50008 -0.656103 0.495628
1.40701 -0.747378 0.534243
0.270529 2.41513 1.00098
0.373567 2.3452 0.962894
0.450319 2.27405 0.934526
0.475803 2.19968 0.925107
0.450319 2.12166 0.934526
0.577242 2.0553 0.887613
0.652806 1.98556 0.859684
0.702938 1.91413 0.841154
0.802623 1.84727 0.804309
0.876883 1.77873 0.776862
0.950717 1.71058 0.749571
0.975233 1.63817 0.740509
1.02413 1.5683 0.722438
1.02413 1.49377 0.722438
1.0485 1.42178 0.713427
1.0485 1.34733 0.713427
1.02413 1.27021 0.722438
1.02413 1.19568 0.722438
0.975233 1.11552 0.740509
0.926153 1.03504 0.758651
0.926153 0.960234 0.758651
0.999703 0.894562 0.731465
1.07283 0.829266 0.704435
1.19379 0.770617 0.659727
1.5966 0.750151 0.510843
1.8961 0.717998 0.400142
1.9642 0.655472 0.374972
2.03193 0.593291 0.34994
2.03193 0.52171 0.34994
2.07687 0.45676 0.333329
2.07687 0.38531 0.333329
2.07687 0.313859 0.333329
2.07687 0.242409 0.333329
2.03193 0.163802 0.34994
1.98682 0.0849068 0.366612
1.91884 0.00197315 0.391736
1.87332 -0.0775852 0.408564
1.82763 -0.157439 0.425452
1.73573 -0.24559 0.459418
1.71265 -0.322115 0.46795
1.66636 -0.402944 0.485059
1.6199 -0.484076 0.502233
1.52645 -0.574193 0.536772
1.47946 -0.656103 0.55414
1.38496 -0.747378 0.58907
0.046233 2.48091 1.07099
0.231022 2.41513 1.01083
0.387397 2.34857 0.959912
0.439116 2.27581 0.943074
0.387397 2.19603 0.959912
0.439116 2.12356 0.943074
0.54195 2.0553 0.909591
0.618552 1.98556 0.88465
0.669372 1.91413 0.868103
0.795568 1.84941 0.827013
0.895654 1.78312 0.794427
0.920556 1.71058 0.786318
0.970215 1.6405 0.770149
1.01969 1.57068 0.754042
1.04435 1.49869 0.74601
1.04435 1.42431 0.74601
1.04435 1.34993 0.74601
1.01969 1.27288 0.754042
1.01969 1.19843 0.754042
0.970215 1.11834 0.770149
0.920556 1.03795 0.786318
0.920556 0.963214 0.786318
0.970215 0.894562 0.770149
1.09354 0.835435 0.729996
1.19136 0.773745 0.698147
1.5042 0.740824 0.596287
1.87893 0.717998 0.474274
1.925 0.652328 0.459275
1.99378 0.590098 0.436881
2.06218 0.528211 0.414609
2.06218 0.45676 0.414609
2.06218 0.38531 0.414609
2.06218 0.313859 0.414609
2.06218 0.242409 0.414609
2.01662 0.163802 0.429444
1.99378 0.0885673 0.436881
1.94797 0.00945997 0.451798
1.90198 -0.0699382 0.466769
1.80951 -0.157439 0.496876
1.73971 -0.241586 0.519604
1.71636 -0.318036 0.527208
1.6225 -0.47983 0.557766
1.55165 -0.56551 0.580835
1.45657 -0.656103 0.611795
1.38478 -0.742845 0.635168
-0.0227766 2.47934 1.0796
0.217663 2.41676 1.01163
0.349412 2.34857 0.974382
0.427845 2.27756 0.952209
0.453888 2.20333 0.944848
0.453888 2.12735 0.944848
0.531712 2.05726 0.922848
0.609084 1.98758 0.900975
0.686008 1.91829 0.879229
0.787883 1.85155 0.850431
0.863775 1.78312 0.828977
0.939232 1.71509 0.807646
0.989297 1.64513 0.793493
1.01426 1.57307 0.786437
1.03917 1.50114 0.779394
1.03917 1.42683 0.779394
1.06404 1.3551 0.772365
1.01426 1.27555 0.786437
1.01426 1.20117 0.786437
0.964288 1.12116 0.800563
0.914127 1.04085 0.814743
0.888975 0.963214 0.821853
0.964288 0.897596 0.800563
1.06404 0.835435 0.772365
1.16303 0.773745 0.744381
1.26127 0.712522 0.716608
1.85886 0.717998 0.547675
1.92873 0.655472 0.527925
1.97509 0.590098 0.51482
2.02128 0.524963 0.501761
2.04431 0.45676 0.495251
2.0673 0.388682 0.488751
2.04431 0.313859 0.495251
2.04431 0.242409 0.495251
1.97509 0.160214 0.51482
1.97509 0.0885673 0.51482
1.92873 0.00945997 0.527925
1.88219 -0.0699382 0.54108
1.81207 -0.153531 0.560902
1.74156 -0.237588 0.580835
1.71797 -0.313964 0.587505
1.67066 -0.394628 0.60088
1.59935 -0.47983 0.621036
1.5516 -0.561181 0.634536
1.47963 -0.647249 0.654881
1.38304 -0.73832 0.682186
-0.0379388 2.48091 1.07132
0.23118 2.42 1.00654
0.36377 2.35193 0.974619
0.416444 2.2793 0.961939
0.390132 2.20151 0.968272
0.442704 2.12924 0.955617
0.521179 2.05921 0.936726
0.599198 1.98959 0.917945
0.676766 1.92037 0.899272
0.753887 1.85155 0.880708
0.856025 1.78531 0.85612
0.906799 1.71509 0.843898
0.957381 1.64513 0.831721
0.9826 1.57307 0.82565
1.03289 1.50358 0.813544
1.05797 1.43185 0.807507
1.03289 1.3551 0.813544
1.03289 1.28087 0.813544
1.00777 1.2039 0.819591
0.957381 1.12398 0.831721
0.906799 1.04375 0.843898
0.906799 0.969156 0.843898
0.932115 0.897596 0.837803
1.03289 0.835435 0.813544
1.13291 0.773745 0.789467
1.23217 0.712522 0.765574
1.76495 0.708693 0.637317
1.88303 0.652328 0.608893
1.95335 0.590098 0.591964
1.97671 0.52171 0.586343
2.00002 0.453447 0.58073
2.02329 0.38531 0.575127
2.02329 0.313859 0.575127
2.00002 0.2389 0.58073
2.00002 0.167384 0.58073
1.95335 0.0885673 0.591964
1.90651 0.00945997 0.603241
1.83593 -0.0737581 0.620231
1.78865 -0.153531 0.631612
1.71741 -0.237588 0.648761
1.69358 -0.313964 0.654499
1.6697 -0.390481 0.660246
1.57374 -0.47983 0.683347
1.54964 -0.556859 0.689149
1.45278 -0.647249 0.712467
1.35519 -0.73832 0.735959
0.00202999 2.48562 1.05264
0.245139 2.42323 1.00413
0.351817 2.3536 0.982843
0.404845 2.28104 0.972261
0.378357 2.20333 0.977547
0.431282 2.13113 0.966986
0.510284 2.06116 0.951221
0.588829 1.9916 0.935548
0.666919 1.92244 0.919965
0.77034 1.85581 0.899327
0.821753 1.78531 0.889068
0.898504 1.71734 0.873752
0.949427 1.64745 0.86359
0.974817 1.57545 0.858524
1.02545 1.50602 0.84842
1.02545 1.43185 0.84842
1.02545 1.35769 0.84842
1.02545 1.28352 0.84842
1.00016 1.20663 0.853467
0.949427 1.12679 0.86359
0.898504 1.04664 0.873752
0.898504 0.972118 0.873752
0.949427 0.903646 0.86359
1.02545 0.83851 0.84842
1.15119 0.779984 0.823329
1.22607 0.71569 0.808387
1.76248 0.7118 0.701347
1.85767 0.652328 0.682352
1.90501 0.586899 0.672905
1.95217 0.52171 0.663495
1.95217 0.450129 0.663495
1.99915 0.38531 0.654119
1.99915 0.313859 0.654119
2.02258 0.245912 0.649443
1.97568 0.167384 0.658802
1.97568 0.0958681 0.658802
1.90501 0.0131936 0.672905
1.85767 -0.0661244 0.682352
1.78634 -0.14963 0.696585
1.73857 -0.229617 0.706118
1.71462 -0.305843 0.710897
1.64249 -0.390481 0.72529
1.5457 -0.552547 0.744606
1.44818 -0.642836 0.764065
1.34993 -0.733804 0.783671
-0.0392976 2.48562 1.05191
0.205528 2.42323 1.01298
0.339687 2.35528 0.991647
0.366363 2.28104 0.987405
0.366363 2.20514 0.987405
0.446077 2.13489 0.97473
0.498963 2.06311 0.96632
0.57791 1.99361 0.953767
0.682464 1.92657 0.937142
0.760352 1.85793 0.924756
0.837793 1.78968 0.912442
0.889174 1.71959 0.904273
0.940359 1.64975 0.896133
0.99135 1.58019 0.888025
1.01677 1.50846 0.883983
1.04215 1.43686 0.879948
1.01677 1.36026 0.883983
1.01677 1.28616 0.883983
0.99135 1.20935 0.888025
0.940359 1.12959 0.896133
0.914791 1.05241 0.900198
0.863508 0.972118 0.908353
0.914791 0.903646 0.900198
1.04215 0.844644 0.879948
1.14317 0.783094 0.863885
1.21843 0.718852 0.851917
1.70951 0.708693 0.773829
1.82945 0.652328 0.754757
1.87712 0.586899 0.747177
1.92461 0.52171 0.739626
1.97193 0.45676 0.7321
1.94829 0.381931 0.73586
1.94829 0.310416 0.73586
1.97193 0.242409 0.7321
1.94829 0.167384 0.73586
1.92461 0.092221 0.739626
1.90089 0.0169196 0.743398
1.85331 -0.0623188 0.750963
1.75762 -0.14963 0.766179
1.70951 -0.229617 0.773829
1.66122 -0.3099 0.781508
1.63701 -0.386343 0.785358
1.58845 -0.467141 0.793079
1.51527 -0.552547 0.804715
1.44169 -0.63843 0.816416
1.31812 -0.733804 0.836065
0.00197436 2.4903 1.03974
0.246694 2.42805 1.01062
0.300493 2.35528 1.00422
0.407466 2.28625 0.991491
0.354084 2.20696 0.997843
0.434079 2.13677 0.988325
0.487152 2.06505 0.98201
0.566377 1.99561 0.972584
0.671301 1.92863 0.960101
0.749464 1.86005 0.950801
0.801324 1.78968 0.944631
0.904453 1.72406 0.93236
0.955722 1.65436 0.926261
0.981284 1.58255 0.923219
1.0068 1.51089 0.920184
1.0068 1.43686 0.920184
1.0068 1.36283 0.920184
1.03226 1.29144 0.917153
0.981284 1.21207 0.923219
0.955722 1.13518 0.926261
0.878744 1.05241 0.935419
0.852987 0.975075 0.938484
0.878744 0.903646 0.935419
1.03226 0.847702 0.917153
1.13364 0.786199 0.905092
1.20917 0.722009 0.896105
1.65356 0.70558 0.843233
1.7503 0.64602 0.831723
1.84634 0.586899 0.820296
1.89409 0.52171 0.814615
1.9179 0.453447 0.811781
1.94167 0.38531 0.808954
1.96539 0.317297 0.806132
1.94167 0.242409 0.808954
1.94167 0.170959 0.808954
1.89409 0.092221 0.814615
1.87024 0.0169196 0.817454
1.82239 -0.0623188 0.823145
1.72618 -0.14963 0.834593
1.67781 -0.229617 0.840348
1.65356 -0.305843 0.843233
1.60491 -0.386343 0.84902
1.55609 -0.467141 0.854829
1.48251 -0.552547 0.863584
1.40852 -0.63843 0.872386
1.28428 -0.733804 0.887169
1.03226 -0.853307 0.917153
0.0161225 2.4934 1.03465
0.206827 2.42805 1.01953
0.341457 2.36027 1.00885
0.394944 2.28798 1.0046
0.368226 2.21057 1.00672
0.421608 2.13864 1.00249
0.474786 2.06699 0.998272
0.554167 1.99761 0.991976
0.659296 1.93069 0.983637
0.737615 1.86217 0.977425
0.789577 1.79186 0.973303
0.86715 1.72406 0.967151
0.944282 1.65665 0.961033
0.969894 1.58492 0.959001
0.969894 1.51089 0.959001
0.995459 1.43936 0.956973
0.995459 1.3654 0.956973
0.995459 1.29144 0.956973
0.969894 1.21478 0.959001
0.89291 1.13239 0.965108
0.86715 1.05528 0.967151
0.841342 0.978026 0.969197
0.918621 0.912678 0.963067
1.02098 0.850754 0.954949
1.14783 0.792391 0.944887
1.22337 0.728303 0.938896
1.52133 0.693069 0.915263
1.7163 0.64602 0.899797
1.78867 0.583693 0.894057
1.86065 0.52171 0.888349
1.88455 0.453447 0.886453
1.90841 0.38531 0.884559
1.93223 0.317297 0.882672
1.90841 0.242409 0.884559
1.88455 0.167384 0.886453
1.8367 0.0885673 0.890248
1.81271 0.0131936 0.892151
1.76459 -0.0661244 0.895967
1.7163 -0.145736 0.899797
1.66783 -0.225642 0.903642
1.66783 -0.297753 0.903642
1.61917 -0.378088 0.907502
1.52133 -0.467141 0.915263
1.47213 -0.548241 0.919164
1.39799 -0.634032 0.925045
1.29849 -0.724797 0.932938
1.02098 -0.848644 0.954949
-0.0245097 2.4934 1.03449
0.166642 2.42805 1.02686
0.274702 2.35861 1.02255
0.355198 2.28798 1.01934
0.355198 2.21237 1.01934
0.408603 2.14051 1.0172
0.488323 2.07085 1.01402
0.514794 1.99761 1.01297
0.646388 1.93274 1.00772
0.724739 1.86428 1.00459
0.802643 1.79621 1.00148
0.880102 1.72853 0.99839
0.931497 1.65894 0.996339
0.931497 1.58492 0.996339
1.00822 1.51815 0.993279
0.982696 1.44185 0.994297
0.982696 1.36796 0.994297
0.982696 1.29408 0.994297
0.982696 1.22019 0.994297
0.905824 1.13797 0.997364
0.854332 1.05815 0.999419
0.828512 0.980972 1.00045
0.880102 0.912678 0.99839
1.00822 0.853801 0.993279
1.13514 0.795478 0.988214
1.21072 0.731442 0.985198
1.63106 0.639689 0.968424
1.77629 0.586899 0.962629
1.80033 0.518451 0.961671
1.89609 0.460067 0.95785
1.87221 0.38531 0.958802
1.8483 0.310416 0.959756
1.87221 0.242409 0.958802
1.8483 0.167384 0.959756
1.80033 0.0885673 0.961671
1.75219 0.00945997 0.963591
1.70388 -0.0699382 0.965519
1.67965 -0.145736 0.966486
1.63106 -0.225642 0.968424
1.6067 -0.301795 0.969397
1.6067 -0.373972 0.969397
1.55785 -0.454523 0.971346
1.38541 -0.629643 0.978227
1.26086 -0.724797 0.983197
1.0337 -0.839343 0.992262
-0.0101786 2.4965 1.03269
0.180377 2.43125 1.03258
0.261251 2.36027 1.03253
0.341655 2.28971 1.03248
0.341655 2.21417 1.03248
0.421593 2.14423 1.03243
0.501069 2.0747 1.03238
0.501069 1.9996 1.03238
0.632515 1.93479 1.0323
0.684741 1.86428 1.03227
0.788595 1.79837 1.03221
0.840227 1.72853 1.03217
0.917307 1.66123 1.03213
0.942903 1.58962 1.03211
0.968451 1.51815 1.03209
0.968451 1.44434 1.03209
0.99395 1.37307 1.03208
0.968451 1.2967 1.03209
0.942903 1.22019 1.03211
0.891662 1.14075 1.03214
0.840227 1.06101 1.03217
0.840227 0.986846 1.03217
0.865969 0.915677 1.03216
0.968451 0.853801 1.03209
1.12073 0.79856 1.032
1.19622 0.734575 1.03196
1.34594 0.680465 1.03186
1.59179 0.639689 1.03171
1.68886 0.580483 1.03165
1.78521 0.52171 1.0316
1.78521 0.450129 1.0316
1.80919 0.381931 1.03158
1.80919 0.310416 1.03158
1.80919 0.2389 1.03158
1.78521 0.163802 1.0316
1.76119 0.0885673 1.03161
1.68886 0.00572062 1.03165
1.66466 -0.0699382 1.03167
1.64041 -0.145736 1.03168
1.64041 -0.217714 1.03168
1.61612 -0.293718 1.0317
1.54298 -0.378088 1.03174
1.494 -0.458721 1.03177
1.44483 -0.539655 1.0318
1.37073 -0.625262 1.03185
1.24631 -0.720306 1.03193
0.99395 -0.839343 1.03208
5.68571 -0.898101 1.02921
-0.0507147 2.4965 1.0315
0.166689 2.43284 1.03991
0.247346 2.36193 1.04303
0.327534 2.29143 1.04613
0.300856 2.21417 1.0451
0.407258 2.14609 1.04921
0.486523 2.07662 1.05228
0.486523 2.0016 1.05228
0.591499 1.93479 1.05634
0.695674 1.86849 1.06037
0.747464 1.79837 1.06237
0.850453 1.73297 1.06635
0.876079 1.66123 1.06734
0.927184 1.59197 1.06932
0.952664 1.52057 1.07031
0.952664 1.44682 1.07031
0.952664 1.37307 1.07031
0.952664 1.29932 1.07031
0.927184 1.22289 1.06932
0.901655 1.1463 1.06833
0.82478 1.06387 1.06536
0.799056 0.986846 1.06436
0.850453 0.918671 1.06635
0.952664 0.856842 1.07031
1.10454 0.801635 1.07618
1.20484 0.740824 1.08006
1.30439 0.680465 1.08391
1.50129 0.633335 1.09152
1.55005 0.567578 1.09341
1.67119 0.511914 1.0981
1.71933 0.446804 1.09996
1.71933 0.375156 1.09996
1.7673 0.310416 1.10181
1.74334 0.235384 1.10089
1.74334 0.163802 1.10089
1.67119 0.0812395 1.0981
1.64705 0.00572062 1.09716
1.59864 -0.0737581 1.09529
1.62287 -0.14185 1.09623
1.59864 -0.217714 1.09529
1.57437 -0.293718 1.09435
1.52569 -0.373972 1.09247
1.45234 -0.458721 1.08963
1.40321 -0.539655 1.08773
1.30439 -0.629643 1.08391
1.2298 -0.715824 1.08102
1.00348 -0.830077 1.07227
1.42779 -0.897602 1.08868
4.79377 -0.89769 1.21887
-0.0638721 2.49804 1.03084
0.098806 2.43125 1.04355
0.232926 2.36359 1.05402
0.28621 2.29143 1.05818
0.312776 2.21776 1.06025
0.418525 2.1498 1.06851
0.444835 2.07662 1.07057
0.471095 2.00358 1.07262
0.523463 1.93274 1.07671
0.627598 1.86638 1.08484
0.73094 1.80054 1.09291
0.807932 1.73297 1.09892
0.859018 1.66351 1.10291
0.90991 1.59431 1.10688
0.935284 1.52297 1.10886
0.935284 1.4493 1.10886
0.935284 1.37562 1.10886
0.935284 1.30194 1.10886
0.90991 1.22558 1.10688
0.884488 1.14907 1.1049
0.807932 1.06673 1.09892
0.782317 0.989775 1.09692
0.807932 0.918671 1.09892
0.90991 0.856842 1.10688
1.06144 0.801635 1.11871
1.13656 0.737702 1.12458
1.31022 0.686779 1.13814
1.40844 0.626957 1.14581
1.50593 0.567578 1.15342
1.57858 0.505354 1.1591
1.65083 0.443472 1.16474
1.65083 0.371759 1.16474
1.65083 0.300046 1.16474
1.62679 0.224797 1.16286
1.62679 0.153018 1.16286
1.57858 0.073885 1.1591
1.57858 0.00197315 1.1591
1.57858 -0.0699382 1.1591
1.57858 -0.14185 1.1591
1.57858 -0.213761 1.1591
1.55441 -0.289692 1.15721
1.50593 -0.369864 1.15342
1.45728 -0.450332 1.14962
1.40844 -0.5311 1.14581
1.31022 -0.620889 1.13814
1.23607 -0.706884 1.13235
1.01112 -0.820847 1.11479
-0.0771526 2.49958 1.03074
0.111359 2.43444 1.05293
0.244446 2.36689 1.0686
0.27091 2.29315 1.07172
0.27091 2.21776 1.07172
0.402463 2.15164 1.08721
0.428621 2.07854 1.09028
0.428621 2.00358 1.09028
0.506796 1.93479 1.09949
0.610334 1.86849 1.11168
0.713084 1.80269 1.12378
0.789636 1.73519 1.13279
0.840429 1.66579 1.13877
0.865753 1.59431 1.14175
0.916258 1.52538 1.1477
0.941439 1.45424 1.15066
0.941439 1.3807 1.15066
0.891029 1.30194 1.14473
0.916258 1.23095 1.1477
0.865753 1.15183 1.14175
0.815055 1.07242 1.13578
0.789636 0.995616 1.13279
0.815055 0.924641 1.13578
0.891029 0.859877 1.14473
1.04169 0.804705 1.16247
1.14119 0.743938 1.17418
1.26453 0.686779 1.1887
1.31354 0.620556 1.19447
1.41102 0.561091 1.20595
1.45949 0.495467 1.21166
1.50778 0.430087 1.21734
1.53186 0.361531 1.22018
1.53186 0.289619 1.22018
1.50778 0.214153 1.21734
1.50778 0.142175 1.21734
1.50778 0.0701978 1.21734
1.53186 0.00197315 1.22018
1.50778 -0.0737581 1.21734
1.53186 -0.14185 1.22018
1.50778 -0.217714 1.21734
1.50778 -0.289692 1.21734
1.50778 -0.361669 1.21734
1.45949 -0.441975 1.21166
1.36237 -0.5311 1.20022
1.19066 -0.706884 1.18001
1.0167 -0.811651 1.15952
5.26341 -0.89535 1.65952
6.06408 -0.895835 1.75379
-0.0906177 2.50111 1.03116
0.0699352 2.43444 1.05649
0.202305 2.36689 1.07737
0.254895 2.29486 1.08567
0.254895 2.21955 1.08567
0.359468 2.15164 1.10217
0.359468 2.07662 1.10217
0.281114 1.99561 1.08981
0.46324 1.93479 1.11854
0.540548 1.86638 1.13073
0.668415 1.80269 1.15091
0.744553 1.73519 1.16292
0.82026 1.66806 1.17486
0.8454 1.59665 1.17883
0.870493 1.52538 1.18279
0.870493 1.45177 1.18279
0.895538 1.3807 1.18674
0.870493 1.30455 1.18279
0.870493 1.23095 1.18279
0.82026 1.15183 1.17486
0.769837 1.07242 1.16691
0.744553 0.995616 1.16292
0.769837 0.924641 1.16691
0.870493 0.862906 1.18279
1.02006 0.807769 1.20638
1.11884 0.747048 1.22196
1.28994 0.62376 1.24896
1.33841 0.557837 1.2566
1.38671 0.49216 1.26422
1.38671 0.419982 1.26422
1.41079 0.351245 1.26802
1.43483 0.282636 1.27181
1.45882 0.214153 1.2756
1.43483 0.138548 1.27181
1.48277 0.073885 1.27938
1.48277 0.00197315 1.27938
1.50668 -0.0661244 1.28315
1.50668 -0.137969 1.28315
1.48277 -0.213761 1.27938
1.45882 -0.289692 1.2756
1.41079 -0.369864 1.26802
1.36258 -0.450332 1.26042
1.3142 -0.5311 1.25278
1.16795 -0.702427 1.22971
0.995249 -0.807066 1.20247
3.40984 -0.894266 1.58339
3.71353 -0.897248 1.63129
4.31745 -0.898906 1.72657
4.63577 -0.893667 1.77678
4.90943 -0.896505 1.81996
5.17661 -0.899277 1.8621
5.4547 -0.898101 1.90598
5.74266 -0.893126 1.9514
6.02317 -0.88828 1.99566
-0.104329 2.50264 1.0321
0.0811356 2.43761 1.06888
0.212075 2.37018 1.09484
0.238112 2.29657 1.1
0.238112 2.22133 1.1
0.341757 2.15349 1.12055
0.315921 2.0016 1.11543
0.444608 1.93683 1.14095
0.495739 1.86638 1.15108
0.647966 1.80485 1.18127
0.698324 1.73519 1.19125
0.798468 1.67033 1.21111
0.848257 1.60132 1.22098
0.87308 1.53017 1.2259
0.87308 1.4567 1.2259
0.897859 1.38576 1.23081
0.87308 1.30976 1.2259
0.848257 1.23362 1.22098
0.798468 1.15459 1.21111
0.773504 1.07808 1.20616
0.72343 0.998528 1.19623
0.72343 0.924641 1.19623
0.823386 0.862906 1.21605
0.971911 0.807769 1.2455
1.09441 0.750151 1.26979
1.23991 0.62376 1.29864
1.31205 0.561091 1.31294
1.33601 0.49216 1.31769
1.35992 0.423357 1.32243
1.35992 0.351245 1.32243
1.40762 0.286131 1.33189
1.4314 0.217708 1.3366
1.4314 0.145797 1.3366
1.45514 0.0775661 1.34131
1.45514 0.00572062 1.34131
1.47883 -0.0623188 1.34601
1.45514 -0.137969 1.34131
1.45514 -0.209815 1.34131
1.45514 -0.28166 1.34131
1.40762 -0.361669 1.33189
1.35992 -0.441975 1.32243
1.28805 -0.526835 1.30818
1.23991 -0.607819 1.29864
1.14309 -0.697978 1.27944
0.996503 -0.797922 1.25037
3.34504 -0.894266 1.71603
4.26518 -0.894829 1.89847
4.56243 -0.893667 1.95741
4.8342 -0.896505 2.0113
5.11698 -0.89535 2.06737
5.37567 -0.898101 2.11866
5.64501 -0.896954 2.17206
5.89155 -0.89962 2.22094
-0.118346 2.50417 1.03354
0.0651737 2.43919 1.07748
0.168928 2.37018 1.10232
0.220506 2.29828 1.11467
0.24622 2.22489 1.12083
0.323067 2.15533 1.13923
0.323067 2.00557 1.13923
0.399472 1.93683 1.15752
0.424843 1.86428 1.1636
0.60109 1.80485 1.2058
0.700755 1.7396 1.22966
0.750304 1.67033 1.24152
0.824279 1.60364 1.25923
0.848844 1.53256 1.26512
0.848844 1.45916 1.26512
0.848844 1.38576 1.26512
0.848844 1.31236 1.26512
0.824279 1.23629 1.25923
0.77501 1.15734 1.24744
0.750304 1.08091 1.24152
0.700755 1.00144 1.22966
0.700755 0.927618 1.22966
0.799667 0.865929 1.25334
0.922264 0.807769 1.28269
1.06787 0.753249 1.31756
1.21185 0.626957 1.35203
1.28325 0.564337 1.36913
1.30696 0.495467 1.3748
1.35424 0.430087 1.38612
1.33062 0.354681 1.38047
1.35424 0.286131 1.38612
1.37782 0.217708 1.39177
1.37782 0.145797 1.39177
1.37782 0.073885 1.39177
1.42485 0.00945997 1.40303
1.4483 -0.0585198 1.40864
1.42485 -0.134098 1.40303
1.40136 -0.209815 1.39741
1.40136 -0.28166 1.39741
1.35424 -0.361669 1.38612
1.33062 -0.437807 1.38047
1.2357 -0.526835 1.35774
1.18797 -0.607819 1.34631
1.11604 -0.693537 1.32909
0.946646 -0.797922 1.28853
0.799667 -0.898997 1.25334
3.27509 -0.894266 1.84604
3.57409 -0.897248 1.91762
3.8848 -0.896022 1.99202
4.18736 -0.894829 2.06446
4.46387 -0.89769 2.13067
4.75151 -0.896505 2.19954
5.01456 -0.899277 2.26252
5.30523 -0.894225 2.33211
5.55538 -0.896954 2.39201
5.81591 -0.895835 2.45439
-0.158831 2.50417 1.0281
0.0228222 2.43919 1.07921
0.151073 2.37182 1.11529
0.176574 2.29828 1.12247
0.202027 2.22489 1.12963
0.278091 2.15533 1.15103
0.202027 2.0747 1.12963
0.328559 2.00952 1.16523
0.35372 1.93683 1.17231
0.428915 1.86849 1.19347
0.553288 1.80485 1.22846
0.651939 1.7396 1.25622
0.725437 1.67259 1.2769
0.774206 1.60364 1.29062
0.798522 1.53256 1.29747
0.822791 1.46162 1.30429
0.822791 1.38828 1.30429
0.798522 1.31236 1.29747
0.798522 1.23896 1.29747
0.749845 1.16008 1.28377
0.725437 1.08373 1.2769
0.700984 1.00723 1.27002
0.700984 0.933554 1.27002
0.749845 0.865929 1.28377
0.871194 0.807769 1.31791
1.01532 0.753249 1.35847
1.11051 0.693069 1.38525
1.15784 0.626957 1.39857
1.20499 0.561091 1.41183
1.25197 0.495467 1.42505
1.29878 0.430087 1.43822
1.29878 0.358109 1.43822
1.32212 0.289619 1.44479
1.32212 0.217708 1.44479
1.34542 0.149411 1.45135
1.36867 0.0812395 1.45789
1.39188 0.0131936 1.46442
1.39188 -0.0585198 1.46442
1.41505 -0.126375 1.47094
1.39188 -0.201946 1.46442
1.36867 -0.277657 1.45789
1.36867 -0.349435 1.45789
1.2754 -0.437807 1.43164
1.20499 -0.522577 1.41183
1.15784 -0.603478 1.39857
0.847016 -0.807066 1.31111
1.20499 -0.883799 1.41183
3.20009 -0.894266 1.97319
3.82255 -0.891897 2.14833
4.08459 -0.898906 2.22206
4.41278 -0.88965 2.3144
4.67904 -0.892534 2.38932
4.939 -0.89535 2.46247
5.22627 -0.890355 2.5433
5.50603 -0.885489 2.62201
5.74686 -0.88828 2.68977
-0.199071 2.50417 1.02107
0.00587977 2.44077 1.08752
0.13237 2.37345 1.12854
0.182626 2.30169 1.14483
0.182626 2.22667 1.14483
0.232688 2.15533 1.16106
0.307423 2.0115 1.1853
0.357007 1.94091 1.20137
0.406403 1.87059 1.21739
0.504631 1.80485 1.24924
0.626373 1.74181 1.28871
0.698866 1.67485 1.31222
0.746968 1.60596 1.32782
0.746968 1.53256 1.32782
0.770951 1.46162 1.33559
0.818782 1.39332 1.3511
0.770951 1.31495 1.33559
0.770951 1.24162 1.33559
0.698866 1.16008 1.31222
0.698866 1.08655 1.31222
0.650582 1.00723 1.29656
0.674748 0.936514 1.3044
0.72294 0.868947 1.32002
0.818782 0.807769 1.3511
0.961203 0.753249 1.39728
1.07868 0.696206 1.43537
1.12536 0.630149 1.45051
1.17187 0.564337 1.46559
1.19506 0.495467 1.47311
1.24132 0.430087 1.4881
1.24132 0.358109 1.4881
1.26438 0.289619 1.49558
1.31038 0.224797 1.5105
1.33331 0.15662 1.51793
1.33331 0.0849068 1.51793
1.35621 0.0169196 1.52536
1.35621 -0.0547276 1.52536
1.35621 -0.126375 1.52536
1.33331 -0.201946 1.51793
1.31038 -0.277657 1.5105
1.26438 -0.357584 1.49558
1.21821 -0.437807 1.48061
1.17187 -0.518328 1.46559
1.10204 -0.603478 1.44294
0.961203 -0.77521 1.39728
0.72294 -0.894317 1.32002
1.07868 -0.897602 1.43537
2.79983 -0.8955 1.99344
3.12016 -0.894266 2.09731
3.41262 -0.897248 2.19213
3.73526 -0.891897 2.29675
4.03071 -0.890759 2.39255
4.33625 -0.885639 2.49161
4.56429 -0.896505 2.56556
4.87231 -0.887517 2.66543
5.13886 -0.88649 2.75186
5.39884 -0.885489 2.83615
5.6525 -0.884512 2.9184
-0.188163 2.50722 1.03119
-0.0117679 2.44235 1.09614
0.112775 2.37509 1.142
0.162256 2.30339 1.16022
0.186925 2.23021 1.1693
0.211548 2.15716 1.17837
0.211548 2.00755 1.17837
0.333954 1.94294 1.22344
0.38259 1.87268 1.24135
0.406839 1.80054 1.25028
0.575296 1.74181 1.31231
0.64681 1.67485 1.33864
0.670558 1.60364 1.34739
0.717921 1.53495 1.36483
0.717921 1.46162 1.36483
0.765106 1.39332 1.3822
0.741536 1.31754 1.37353
0.741536 1.24428 1.37353
0.694263 1.16556 1.35612
0.694263 1.09216 1.35612
0.64681 1.01301 1.33864
0.623016 0.936514 1.32988
0.694263 0.87196 1.35612
0.812115 0.81388 1.39951
0.928868 0.756341 1.44251
1.02149 0.696206 1.47661
1.09051 0.633335 1.50202
1.13631 0.567578 1.51889
1.20469 0.505354 1.54407
1.2274 0.436792 1.55243
1.2274 0.364947 1.55243
1.25007 0.296576 1.56078
1.25007 0.224797 1.56078
1.27269 0.15662 1.56911
1.29528 0.0885673 1.57743
1.31782 0.0206389 1.58573
1.31782 -0.0509424 1.58573
1.31782 -0.122524 1.58573
1.29528 -0.198022 1.57743
1.25007 -0.277657 1.56078
1.20469 -0.357584 1.54407
1.18194 -0.433647 1.53569
1.13631 -0.514086 1.51889
1.06755 -0.599146 1.49357
0.998402 -0.684681 1.46811
0.788633 -0.797922 1.39087
0.64681 -0.898997 1.33864
2.71941 -0.8955 2.10183
3.05488 -0.890033 2.22535
3.3429 -0.893065 2.33141
3.64221 -0.891897 2.44163
3.95164 -0.886695 2.55556
4.23509 -0.885639 2.65993
4.49424 -0.88857 2.75536
4.76391 -0.887517 2.85466
5.02686 -0.88649 2.95148
5.28333 -0.885489 3.04592
5.54901 -0.880749 3.14375
-0.228503 2.50722 1.023
-0.0301689 2.44392 1.10502
0.0922401 2.37672 1.15563
0.165123 2.30678 1.18577
0.165123 2.23197 1.18577
0.213478 2.16083 1.20576
0.261648 2.01543 1.22568
0.309635 1.94497 1.24552
0.35744 1.87477 1.26529
0.405062 1.80485 1.28498
0.52333 1.74181 1.33389
0.593756 1.67485 1.36301
0.640486 1.60596 1.38233
0.68704 1.53733 1.40158
0.68704 1.46407 1.40158
0.710252 1.39332 1.41118
0.68704 1.31754 1.40158
0.710252 1.24693 1.41118
0.68704 1.17102 1.40158
0.663785 1.09496 1.39196
0.617143 1.01589 1.37268
0.617143 0.942416 1.37268
0.663785 0.874966 1.39196
0.779625 0.816926 1.43986
0.87152 0.756341 1.47786
0.962733 0.696206 1.51558
1.05327 0.636515 1.55301
1.09829 0.570813 1.57163
1.14314 0.505354 1.59017
1.1655 0.436792 1.59942
1.21011 0.371759 1.61787
1.21011 0.300046 1.61787
1.23235 0.231862 1.62706
1.25455 0.163802 1.63624
1.25455 0.092221 1.63624
1.25455 0.0206389 1.63624
1.27671 -0.047164 1.6454
1.27671 -0.11868 1.6454
1.23235 -0.198022 1.62706
1.23235 -0.26967 1.62706
1.21011 -0.345372 1.61787
1.1655 -0.425351 1.59942
1.09829 -0.509851 1.57163
1.05327 -0.590505 1.55301
0.98543 -0.675857 1.52496
0.848611 -0.77521 1.46839
2.61506 -0.8998 2.19881
2.96515 -0.890033 2.34357
3.26745 -0.88889 2.46857
3.57984 -0.883666 2.59774
3.83057 -0.890759 2.70142
4.1446 -0.881635 2.83127
4.3994 -0.884611 2.93662
4.68089 -0.879708 3.05302
4.90711 -0.88649 3.14656
5.19081 -0.877875 3.26387
5.42131 -0.880749 3.35918
-0.243954 2.50874 1.02454
-0.0493697 2.44549 1.1141
0.0707264 2.37834 1.16937
0.142231 2.30847 1.20229
0.165974 2.23549 1.21321
0.189673 2.16265 1.22412
0.260497 2.01935 1.25672
0.284015 1.94699 1.26754
0.354301 1.87894 1.29989
0.354301 1.80485 1.29989
0.493679 1.74401 1.36404
0.562776 1.67711 1.39585
0.585723 1.60596 1.40641
0.631485 1.53733 1.42747
0.654302 1.46651 1.43797
0.654302 1.39332 1.43797
0.654302 1.32012 1.43797
0.654302 1.24693 1.43797
0.654302 1.17374 1.43797
0.631485 1.09775 1.42747
0.585723 1.01876 1.40641
0.562776 0.942416 1.39585
0.608625 0.874966 1.41695
0.722496 0.816926 1.46936
0.812829 0.756341 1.51094
0.902489 0.696206 1.55221
0.991488 0.636515 1.59317
1.03574 0.570813 1.61353
1.10181 0.508637 1.64395
1.14566 0.443472 1.66413
1.14566 0.371759 1.66413
1.14566 0.300046 1.66413
1.18934 0.235384 1.68423
1.21112 0.167384 1.69426
1.21112 0.0958681 1.69426
1.23287 0.0280581 1.70427
1.23287 -0.0433922 1.70427
1.23287 -0.114843 1.70427
1.21112 -0.190196 1.69426
1.21112 -0.261712 1.69426
1.18934 -0.337268 1.68423
1.12375 -0.421215 1.65405
1.07983 -0.501407 1.63383
0.991488 -0.590505 1.59317
0.924801 -0.675857 1.56247
0.790308 -0.77521 1.50057
1.90819 -0.898073 2.0151
2.54612 -0.8955 2.30871
2.87086 -0.890033 2.45817
3.20459 -0.880561 2.61178
3.45727 -0.887779 2.72808
3.72156 -0.890759 2.84972
4.03025 -0.881635 2.9918
4.2972 -0.880659 3.11467
4.55742 -0.879708 3.23444
4.79549 -0.882632 3.34401
5.05867 -0.877875 3.46515
5.28524 -0.880749 3.56943
-0.235981 2.51178 1.03859
-0.0694138 2.44706 1.12334
0.048193 2.37997 1.18317
0.118217 2.31015 1.21879
0.141469 2.23724 1.23062
0.164676 2.16447 1.24243
0.164676 2.08995 1.24243
0.234033 2.0213 1.27772
0.257064 1.94901 1.28943
0.325895 1.88102 1.32445
0.348751 1.80914 1.33608
0.439745 1.74401 1.38237
0.507542 1.67711 1.41686
0.530055 1.60596 1.42832
0.597342 1.5397 1.46255
0.619688 1.46895 1.47392
0.619688 1.39583 1.47392
0.597342 1.32012 1.46255
0.619688 1.24958 1.47392
0.597342 1.17374 1.46255
0.597342 1.10054 1.46255
0.530055 1.01876 1.42832
0.530055 0.94536 1.42832
0.574955 0.877967 1.45116
0.664252 0.816926 1.49659
0.774937 0.759427 1.5529
0.884596 0.702461 1.60869
0.949905 0.639689 1.64192
0.993243 0.574042 1.66397
1.03642 0.508637 1.68594
1.10089 0.446804 1.71874
1.1223 0.378547 1.72963
1.1223 0.306965 1.72963
1.14367 0.2389 1.7405
1.16501 0.170959 1.75135
1.16501 0.0995085 1.75135
1.1863 0.0317569 1.76219
1.1863 -0.039628 1.76219
1.1863 -0.111013 1.76219
1.1863 -0.182398 1.76219
1.14367 -0.261712 1.7405
1.1223 -0.337268 1.72963
1.07944 -0.417085 1.70782
1.03642 -0.497196 1.68594
0.971594 -0.581895 1.65295
0.884596 -0.671458 1.60869
0.774937 -0.766185 1.5529
0.840855 -0.897602 1.58644
2.45352 -0.8955 2.40689
2.79059 -0.885807 2.57838
3.09959 -0.880561 2.73558
3.36499 -0.883666 2.8706
3.62387 -0.886695 3.00231
3.90968 -0.881635 3.14772
4.1716 -0.880659 3.28097
4.42692 -0.879708 3.41087
4.67588 -0.87878 3.53753
4.91873 -0.877875 3.66108
5.17029 -0.87324 3.78906
-0.300057 2.51026 1.0154
-0.0903402 2.44862 1.13268
0.0246054 2.38159 1.19696
0.115772 2.31352 1.24794
0.138454 2.24074 1.26062
0.115772 2.16447 1.24794
0.161093 2.09373 1.27328
0.0930448 2.01346 1.23523
0.251221 1.95304 1.32368
0.296028 1.8831 1.34874
0.318368 1.81128 1.36123
0.407306 1.7462 1.41097
0.473571 1.67936 1.44803
0.51754 1.61059 1.47262
0.539463 1.5397 1.48488
0.539463 1.46651 1.48488
0.583184 1.39833 1.50933
0.583184 1.32527 1.50933
0.561344 1.24958 1.49711
0.561344 1.17645 1.49711
0.539463 1.10054 1.48488
0.51754 1.02449 1.47262
0.51754 0.951229 1.47262
0.51754 0.877967 1.47262
0.604984 0.816926 1.52152
0.79936 0.699336 1.63022
0.88471 0.639689 1.67795
0.927149 0.574042 1.70168
0.990515 0.511914 1.73712
1.05353 0.450129 1.77236
1.05353 0.378547 1.77236
1.07446 0.310416 1.78406
1.09535 0.242409 1.79574
1.07446 0.167384 1.78406
1.09535 0.0995085 1.79574
1.13702 0.0354495 1.81904
1.1162 -0.039628 1.8074
1.13702 -0.10719 1.81904
1.1162 -0.182398 1.8074
1.1162 -0.253783 1.8074
1.07446 -0.333227 1.78406
1.03257 -0.412964 1.76063
1.01156 -0.488799 1.74888
0.927149 -0.577603 1.70168
0.842114 -0.667066 1.65413
0.756447 -0.757194 1.60622
2.35713 -0.8955 2.50136
2.66915 -0.890033 2.67584
2.95465 -0.88889 2.8355
3.26679 -0.879561 3.01006
3.51989 -0.882638 3.1516
3.78309 -0.881635 3.29879
4.03958 -0.880659 3.44222
4.2896 -0.879708 3.58204
4.5334 -0.87878 3.71838
4.78587 -0.874077 3.85957
5.00323 -0.876992 3.98112
-0.293835 2.51329 1.03089
-0.0896761 2.45174 1.15583
0.0222266 2.38482 1.22431
0.088856 2.31519 1.26509
0.133063 2.24423 1.29214
0.133063 2.16992 1.29214
0.155104 2.09749 1.30563
0.155104 2.02325 1.30563
0.242848 1.95706 1.35932
0.286472 1.88724 1.38602
0.286472 1.81342 1.38602
0.373225 1.74839 1.43911
0.416356 1.67936 1.4655
0.459326 1.61059 1.4918
0.502135 1.54208 1.518
0.544783 1.47382 1.5441
0.52348 1.39833 1.53106
0.52348 1.32527 1.53106
0.52348 1.25222 1.53106
0.502135 1.17645 1.518
0.52348 1.10611 1.53106
0.48075 1.02735 1.50491
0.459326 0.951229 1.4918
0.48075 0.880962 1.50491
0.566047 0.819968 1.55711
0.692803 0.765582 1.63468
0.734741 0.699336 1.66034
0.818153 0.639689 1.71139
0.859627 0.574042 1.73677
0.942119 0.515186 1.78725
0.983139 0.450129 1.81235
1.00359 0.381931 1.82487
1.02401 0.313859 1.83736
1.04439 0.245912 1.84983
1.06472 0.178089 1.86228
1.06472 0.106769 1.86228
1.06472 0.0354495 1.86228
1.06472 -0.0358706 1.86228
1.06472 -0.10719 1.86228
1.06472 -0.17851 1.86228
1.06472 -0.24983 1.86228
1.02401 -0.329194 1.83736
0.962647 -0.412964 1.79981
0.942119 -0.488799 1.78725
0.900949 -0.569041 1.76206
0.776525 -0.667066 1.68591
2.2753 -0.891207 2.6031
2.59733 -0.881588 2.80017
2.84105 -0.88889 2.94932
3.1461 -0.879561 3.136
3.40971 -0.878587 3.29732
3.68235 -0.873647 3.46416
3.90132 -0.880659 3.59816
4.17577 -0.871923 3.76611
4.41328 -0.871094 3.91146
4.63066 -0.874077 4.04448
4.87104 -0.869495 4.19158
-0.334082 2.51329 1.01856
-0.134984 2.45174 1.15142
-0.00415697 2.38643 1.23872
0.0606954 2.31687 1.282
0.125178 2.2477 1.32503
0.125178 2.17353 1.32503
0.146591 2.10124 1.33931
0.146591 2.02714 1.33931
0.210585 1.95906 1.38202
0.210585 1.88517 1.38202
0.274217 1.81768 1.42448
0.358501 1.75276 1.48072
0.400405 1.68385 1.50868
0.421298 1.6129 1.52262
0.462966 1.54444 1.55043
0.483743 1.47382 1.56429
0.504479 1.40333 1.57813
0.483743 1.32784 1.56429
0.483743 1.25485 1.56429
0.462966 1.17916 1.55043
0.462966 1.10611 1.55043
0.442151 1.0302 1.53654
0.400405 0.951229 1.50868
0.421298 0.880962 1.52262
0.545837 0.826032 1.60573
0.628092 0.765582 1.66062
0.66899 0.699336 1.68791
0.750332 0.639689 1.74219
0.831078 0.580483 1.79607
0.891246 0.518451 1.83622
0.911228 0.450129 1.84955
0.951082 0.38531 1.87615
0.970955 0.317297 1.88941
0.990792 0.249408 1.90264
1.01059 0.181644 1.91586
0.990792 0.106769 1.90264
1.03036 0.0428133 1.92904
1.01059 -0.0321198 1.91586
1.03036 -0.0995655 1.92904
1.01059 -0.174629 1.91586
0.990792 -0.24983 1.90264
0.970955 -0.325168 1.88941
0.931173 -0.404743 1.86286
0.911228 -0.480432 1.84955
0.831078 -0.569041 1.79607
0.750332 -0.658308 1.74219
0.648559 -0.75271 1.67428
2.17135 -0.891207 2.69042
2.4682 -0.885807 2.88851
2.73983 -0.884722 3.06977
3.03682 -0.875463 3.26795
3.26176 -0.882638 3.41805
3.52807 -0.877638 3.59576
3.77212 -0.876713 3.75861
4.02469 -0.871923 3.92715
4.2706 -0.86726 4.09124
4.48226 -0.870285 4.23248
4.70272 -0.869495 4.37959
-0.352121 2.5148 1.0204
-0.137489 2.45485 1.17614
-0.0527852 2.38643 1.2376
0.0312731 2.31854 1.2986
0.156165 2.25461 1.38922
0.114693 2.17713 1.35913
0.135448 2.10497 1.37419
0.135448 2.03101 1.37419
0.176843 1.96106 1.40422
0.176843 1.88724 1.40422
0.259163 1.82193 1.46396
0.320498 1.75494 1.50846
0.361194 1.68609 1.53799
0.40174 1.6175 1.56741
0.442132 1.54917 1.59672
0.462273 1.47867 1.61133
0.462273 1.40582 1.61133
0.462273 1.33297 1.61133
0.462273 1.26011 1.61133
0.442132 1.18457 1.59672
0.421955 1.10888 1.58208
0.40174 1.03305 1.56741
0.361194 0.954156 1.53799
0.40174 0.886936 1.56741
0.462273 0.823003 1.61133
0.622051 0.702461 1.72727
0.720712 0.64602 1.79886
0.740336 0.577265 1.8131
0.818468 0.518451 1.86979
0.857319 0.453447 1.89798
0.89603 0.388682 1.92607
0.91533 0.320728 1.94008
0.934597 0.252898 1.95406
0.973024 0.188735 1.98194
0.953828 0.114003 1.96801
0.953828 0.0428133 1.96801
0.953828 -0.0283761 1.96801
0.953828 -0.0995655 1.96801
0.953828 -0.170755 1.96801
0.953828 -0.241945 1.96801
0.934597 -0.317138 1.95406
0.89603 -0.396553 1.92607
0.837913 -0.480432 1.8839
0.779474 -0.564773 1.8415
0.701053 -0.65394 1.78459
0.641856 -0.73931 1.74164
0.582328 -0.897602 1.69845
2.08127 -0.886921 2.78609
2.36962 -0.881588 2.99532
2.64974 -0.876407 3.19858
2.89035 -0.879561 3.37317
3.12506 -0.882638 3.54347
3.3992 -0.873647 3.74239
3.60699 -0.880659 3.89316
3.86741 -0.871923 4.08213
4.09279 -0.871094 4.24567
4.3262 -0.866498 4.41503
4.52715 -0.869495 4.56084
-0.39191 2.5148 1.00579
-0.183558 2.45485 1.16984
-0.0604556 2.38965 1.26676
0.0208319 2.32187 1.33076
0.0612446 2.25116 1.36258
0.121577 2.18251 1.41008
0.121577 2.10869 1.41008
0.121577 2.03487 1.41008
0.141612 1.96305 1.42586
0.181567 1.89342 1.45732
0.2808 1.83038 1.53545
0.2808 1.75711 1.53545
0.300536 1.68609 1.55099
0.359518 1.6198 1.59742
0.398657 1.55152 1.62824
0.437649 1.4835 1.65894
0.437649 1.41078 1.65894
0.437649 1.33807 1.65894
0.398657 1.26011 1.62824
0.398657 1.18726 1.62824
0.398657 1.11441 1.62824
0.359518 1.03589 1.59742
0.320232 0.957077 1.56649
0.339894 0.886936 1.58197
0.398657 0.823003 1.62824
0.495866 0.765582 1.70478
0.572984 0.70558 1.7655
0.63045 0.642858 1.81074
0.687598 0.580483 1.85574
0.72552 0.515186 1.88559
0.782144 0.453447 1.93018
0.800949 0.38531 1.94498
0.838458 0.320728 1.97452
0.875829 0.256382 2.00394
0.894462 0.188735 2.01861
0.894462 0.11761 2.01861
0.894462 0.0464849 2.01861
0.894462 -0.0246396 2.01861
0.894462 -0.0957642 2.01861
0.894462 -0.166889 2.01861
0.85716 -0.245883 1.98924
0.85716 -0.317138 1.98924
0.838458 -0.392469 1.97452
0.782144 -0.47626 1.93018
0.74443 -0.556258 1.90048
0.668582 -0.64523 1.84077
0.611329 -0.730418 1.79569
0.553758 -0.888392 1.75036
1.95356 -0.891207 2.85249
2.2502 -0.881588 3.08604
2.50634 -0.880561 3.28772
2.7557 -0.879561 3.48404
2.99852 -0.878587 3.67523
3.24966 -0.873647 3.87296
3.47981 -0.872775 4.05417
3.70417 -0.871923 4.23082
3.92295 -0.871094 4.40308
4.16268 -0.862717 4.59182
4.35745 -0.865755 4.74517
-0.390432 2.51781 1.02432
-0.209381 2.4564 1.17876
-0.110141 2.38965 1.26341
-0.0314291 2.32187 1.33055
0.0466871 2.25461 1.39719
0.0855233 2.18429 1.43032
0.124214 2.11424 1.46332
0.104888 2.03872 1.44684
0.124214 1.96703 1.46332
0.181975 1.89956 1.51259
0.220302 1.83038 1.54529
0.258486 1.76145 1.57786
0.277524 1.69056 1.5941
0.334424 1.62437 1.64264
0.372181 1.55622 1.67484
0.372181 1.4835 1.67484
0.391007 1.41326 1.6909
0.391007 1.26796 1.6909
0.35332 1.18995 1.65875
0.334424 1.11441 1.64264
0.315492 1.03873 1.62649
0.296526 0.962902 1.61031
0.296526 0.889914 1.61031
0.35332 0.826032 1.65875
0.428553 0.765582 1.72293
0.521812 0.708693 1.80248
0.577354 0.64602 1.84986
0.5958 0.577265 1.86559
0.669243 0.518451 1.92824
0.705764 0.453447 1.9594
0.760293 0.392048 2.00591
0.778403 0.324153 2.02136
0.796479 0.256382 2.03678
0.814523 0.188735 2.05217
0.832534 0.121211 2.06754
0.832534 0.0501509 2.06754
0.814523 -0.0246396 2.05217
0.814523 -0.0957642 2.05217
0.832534 -0.163028 2.06754
0.796479 -0.241945 2.03678
0.778403 -0.317138 2.02136
0.778403 -0.388392 2.02136
0.74215 -0.467938 1.99043
0.669243 -0.556258 1.92824
0.5958 -0.64523 1.86559
0.50323 -0.73931 1.78663
0.447275 -0.897602 1.7389
1.85626 -0.886921 2.9408
2.12731 -0.881588 3.172
2.36003 -0.884722 3.37052
2.63167 -0.875463 3.60224
2.86641 -0.874543 3.80248
3.0951 -0.873647 3.99756
3.3042 -0.876713 4.17592
3.54861 -0.868041 4.38441
3.76013 -0.86726 4.56484
3.96646 -0.866498 4.74085
4.1678 -0.865755 4.91259
-0.469615 2.5148 0.971943
-0.236255 2.45794 1.18739
-0.140599 2.39125 1.27571
-0.0647286 2.32353 1.34576
0.0105686 2.25632 1.41528
0.0480034 2.18607 1.44984
0.122451 2.11976 1.51857
0.122451 2.04636 1.51857
0.159465 1.9769 1.55275
0.159465 1.90364 1.55275
0.17792 1.83248 1.56978
0.214726 1.76361 1.60377
0.251394 1.69501 1.63762
0.306141 1.62893 1.68816
0.360582 1.56323 1.73843
0.378662 1.49311 1.75512
0.360582 1.4182 1.73843
0.378662 1.34822 1.75512
0.306141 1.19264 1.68816
0.287926 1.11717 1.67135
0.287926 1.04438 1.67135
0.251394 0.965807 1.63762
0.251394 0.892887 1.63762
0.287926 0.826032 1.67135
0.396707 0.771714 1.77178
0.432698 0.70558 1.80501
0.504284 0.64602 1.8711
0.557625 0.583693 1.92035
0.610675 0.52171 1.96933
0.663433 0.460067 2.01804
0.680955 0.392048 2.03421
0.715902 0.327572 2.06648
0.733329 0.259859 2.08257
0.750722 0.192271 2.09863
0.768085 0.124805 2.11466
0.768085 0.0538096 2.11466
0.768085 -0.0171852 2.11466
0.750722 -0.0919685 2.09863
0.750722 -0.163028 2.09863
0.733329 -0.238013 2.08257
0.733329 -0.309138 2.08257
0.698443 -0.388392 2.05036
0.680955 -0.463789 2.03421
0.610675 -0.552013 1.96933
0.539879 -0.640886 1.90396
0.450645 -0.73486 1.82158
0.396707 -0.892993 1.77178
1.73938 -0.886921 3.01141
2.0163 -0.877376 3.26707
2.24066 -0.880561 3.47423
2.47385 -0.879561 3.68951
