# .PCD v.7 - Point Cloud Data file format
VERSION .7
FIELDS x y z rgb
SIZE 4 4 4 4
TYPE F F F F
COUNT 1 1 1 1
WIDTH  1430
HEIGHT 1
VIEWPOINT 0 0 0 1 0 0 0
POINTS 1430
DATA ascii
2.54387 5.63601 4.48946 6644833
2.5579 5.48312 4.51467 5985877
2.60666 5.33452 4.60228 4210224
2.89483 5.21795 5.12 3354928
3.1097 5.10082 5.50603 4078389
3.24306 4.97798 5.74562 4868167
3.34322 4.85383 5.92557 5591892
3.42958 4.73045 6.08073 6118236
3.41818 2.64301 6.06024 6445652
3.36065 2.47674 5.95687 6116423
3.29051 2.3023 5.83085 5919038
3.19506 2.11256 5.65939 5328723
3.10354 1.92156 5.49495 4735037
2.98464 1.71253 5.28134 3748142
2.80971 1.46799 4.96708 3023901
-1.11998 5.78995 -2.54055 2695199
2.17174 5.78938 4.6489 3947067
2.20777 5.6381 4.7276 6775643
2.2197 5.48569 4.75366 6118236
2.24346 5.33528 4.80555 4472626
2.69438 5.10524 5.79041 3420701
2.81277 4.98373 6.04898 2826521
2.89282 4.85901 6.22382 3089691
2.9027 2.48769 6.24539 1117959
2.843 2.31384 6.11502 1576974
2.77716 2.13392 5.9712 1840135
2.69961 1.94415 5.80184 1445131
-0.927421 5.78937 -2.64853 3152421
1.79032 5.78857 4.7777 4537141
1.83989 5.63914 4.91316 6644316
1.89354 5.49268 5.05973 6445904
1.87413 5.33754 5.00673 6117972
1.76019 5.1645 4.69538 3355441
1.76523 4.38899 4.70916 5326921
1.78031 4.23863 4.75035 5064252
1.78031 4.08372 4.75035 5261367
1.77027 3.92503 4.72291 5130558
1.76019 3.76584 4.69538 5130293
1.76019 3.61044 4.69538 5193272
1.74502 3.44821 4.65393 5130293
1.73487 3.28762 4.62618 5195063
1.71958 3.12397 4.5844 4998457
1.70934 2.96222 4.55643 5129278
1.68877 2.7943 4.50022 4801850
1.67325 2.62827 4.45782 4604216
1.65766 2.46142 4.41522 4471865
1.63151 2.28726 4.34376 4471589
-0.700778 5.79053 -2.65588 2434079
1.42554 5.79019 4.95927 4012346
1.45258 5.63966 5.05615 6512208
1.45258 5.48633 5.05615 6578520
1.44489 5.33148 5.02858 6577756
1.43717 5.17614 5.00092 6116940
1.33451 3.73932 4.63329 5657435
1.35459 3.59318 4.70518 5789271
1.35858 3.43907 4.71949 6051157
1.35858 3.28279 4.71949 5788494
1.35059 3.12142 4.69085 5789007
1.34658 2.96222 4.67649 5985868
1.33451 2.79712 4.63329 5919571
1.32644 2.63419 4.60437 5656401
1.31021 2.46453 4.54626 5657685
1.29388 2.29377 4.48776 5657937
1.27332 2.11849 4.41411 5591889
1.23587 1.92747 4.28001 5459020
-0.495956 5.78995 -2.73181 2236702
1.02926 5.78978 5.04164 3945784
1.04865 5.63914 5.1405 6643547
1.05141 5.48633 5.15453 6643297
1.04314 5.33072 5.11237 6511963
1.04314 5.17702 5.11237 6381149
1.03759 5.02132 5.08414 6182998
-0.273273 5.7911 -2.70339 2565665
0.632184 5.79019 5.12122 4470840
0.643745 5.63966 5.22113 7039839
0.645387 5.48697 5.23532 7563612
0.642099 5.33224 5.20693 7236194
0.640455 5.17791 5.1927 7169381
0.638808 5.02333 5.17845 6972511
0.637157 4.86851 5.16418 6644580
0.635498 4.71345 5.14988 6841427
0.633845 4.55814 5.13556 6644063
0.628857 4.39958 5.09247 6512991
0.525741 0.904701 4.20139 5790288
-0.0625013 5.78995 -2.77576 2762791
0.227897 5.78978 5.14058 4077363
0.231589 5.63914 5.24125 7236447
0.231589 5.48569 5.24125 7301479
0.231066 5.33148 5.22694 7235934
0.229484 5.17525 5.18387 7236196
0.229484 5.02132 5.18387 7170141
0.229484 4.86738 5.18387 6973797
0.22896 4.7122 5.16946 6776931
0.228429 4.55676 5.15503 6776676
0.227368 4.39958 5.12611 6643547
0.226837 4.24353 5.11162 6578785
0.226305 4.08723 5.0971 6774613
0.225236 3.9288 5.06799 6644567
0.224698 3.77188 5.0534 6644817
0.223628 3.61258 5.02416 6446165
0.222552 3.45276 4.99482 6644053
0.222011 3.29483 4.98012 6381909
0.220387 3.13159 4.93586 6118488
0.219303 2.97024 4.90624 6250072
0.217667 2.80556 4.86163 6183767
0.216019 2.64009 4.81681 6184027
0.214369 2.47382 4.77177 6051157
0.21271 2.30673 4.7265 5789271
0.211039 2.13884 4.68103 5723478
0.208802 1.9666 4.62004 5921885
0.207116 1.79692 4.57404 6050630
0.204853 1.62258 4.51235 5656915
0.202575 1.44709 4.45026 5789524
0.200283 1.27045 4.38776 5919821
0.197395 1.08833 4.30905 6051407
0.195069 0.909178 4.24562 6183503
0.152995 5.7911 -2.71286 2828072
-0.177338 5.79059 5.17149 4406587
-0.181543 5.64018 5.27182 6973269
-0.181543 5.48697 5.27182 7301474
-0.180345 5.33224 5.24327 7039588
-0.179748 5.17791 5.22896 7170665
-0.179145 5.02333 5.21463 7236196
-0.178543 4.86851 5.20027 7039591
-0.177945 4.71345 5.18589 7235685
-0.177338 4.55814 5.17149 6973545
-0.176735 4.40258 5.15707 7039588
-0.176131 4.24678 5.14262 7038302
-0.174915 4.08899 5.11366 6907999
-0.174306 3.93257 5.09914 6907739
-0.173089 3.77389 5.07004 6775643
-0.171866 3.61471 5.04085 6578787
-0.171252 3.45729 5.02622 6448227
-0.170024 3.29723 4.99689 6446945
-0.16879 3.13666 4.96746 6446942
-0.167556 2.97557 4.93794 6446669
-0.165692 2.81117 4.89348 6513246
-0.163819 2.64597 4.84881 6379603
-0.16194 2.47998 4.80392 6182730
-0.159417 2.30996 4.74373 6118234
-0.157515 2.14221 4.69833 6184029
-0.155603 1.97364 4.65272 6118486
-0.153683 1.80425 4.60687 6118223
-0.151107 1.63022 4.5454 5985879
-0.148515 1.45505 4.48352 6182993
-0.145908 1.27872 4.42124 5789521
-0.143281 1.10123 4.35855 6250070
-0.139305 0.913648 4.26373 6118236
0.372493 5.78995 -2.75136 2828835
-0.579074 5.78978 5.11295 4209714
-0.592892 5.63966 5.22715 6973269
-0.591171 5.48569 5.21296 7039591
-0.587728 5.33072 5.18449 7236199
-0.587728 5.17702 5.18449 7170401
-0.586001 5.02233 5.17023 7234916
-0.584277 4.86738 5.15594 7236196
-0.582542 4.7122 5.14163 7170920
-0.579074 4.55538 5.11295 7170654
-0.577332 4.39958 5.09857 7236447
-0.575589 4.24353 5.08417 7236199
-0.573843 4.08723 5.06975 6907999
-0.570347 3.9288 5.04083 7038307
-0.56859 3.77188 5.02634 6579298
-0.565077 3.61258 4.99729 6973281
-0.563315 3.45503 4.98273 6974046
-0.559785 3.29483 4.95353 6579037
-0.554466 3.13159 4.90957 6775134
-0.550902 2.97024 4.88015 6447448
-0.547331 2.80837 4.85062 6775896
-0.541952 2.64303 4.80617 6512476
-0.536547 2.4769 4.76149 6446678
-0.529297 2.30673 4.70159 6380887
-0.525656 2.14221 4.67149 6249306
-0.518338 1.97013 4.61101 6249296
-0.512817 1.80059 4.56538 5789769
-0.505414 1.6264 4.5042 6117463
-0.497963 1.45107 4.44262 6051923
-0.490465 1.27459 4.38063 6050644
-0.482912 1.09694 4.31823 5920598
-0.473404 0.913648 4.23966 6117454
0.575496 5.7911 -2.65552 2893854
-0.981302 5.79019 5.06593 4472127
-1.004 5.64018 5.17852 7038305
-1.004 5.48697 5.17852 6972509
-0.998352 5.33224 5.1505 7235683
-0.992687 5.17702 5.1224 6908002
-0.992687 5.02333 5.1224 7039338
-0.992687 4.86964 5.1224 6906203
-0.987002 4.71345 5.09421 7169890
-0.984154 4.55814 5.08008 6973793
-0.981302 4.40258 5.06593 6841438
-0.978446 4.24678 5.05175 6578787
-0.972714 4.08899 5.02334 6972509
-0.969842 3.93257 5.0091 6842211
-0.964088 3.77389 4.98054 6775382
-0.958313 3.61471 4.9519 6446428
-0.952519 3.45503 4.92317 6578787
-0.949616 3.29723 4.90877 6577501
-0.943794 3.13666 4.8799 6446945
-0.937953 2.97557 4.85093 6511963
-0.929162 2.81117 4.80732 6447453
-0.923273 2.64891 4.77812 6380890
-0.914407 2.48306 4.73415 6117191
-0.902524 2.31318 4.67519 6116941
-0.893555 2.14558 4.63072 6116426
-0.881533 1.97364 4.57109 6051920
-0.872465 1.80425 4.52611 5984083
-0.863354 1.63403 4.48092 5722447
-0.851134 1.45901 4.42031 5721932
-0.838831 1.28285 4.3593 5525840
-0.823345 1.10123 4.28247 5525830
-0.81086 0.922565 4.22055 5264212
0.806468 5.78937 -2.68783 2697249
-1.36782 5.78938 4.94548 4077874
-1.39153 5.6381 5.02872 6973281
-1.39153 5.48441 5.02872 7169890
-1.38365 5.32919 5.00106 6972509
-1.3797 5.17436 4.9872 7038307
-1.37574 5.0193 4.97332 7235681
-1.37574 4.86512 4.97332 7039074
-1.37179 4.70968 4.95941 7037789
-1.36384 4.55262 4.93153 7039588
-1.36384 4.39807 4.93153 6906968
-1.35588 4.24027 4.90357 7039076
-1.35188 4.08372 4.88955 6972509
-1.34788 3.92692 4.87551 6840923
-1.33987 3.76786 4.84737 6841438
-1.33183 3.60829 4.81913 6578787
-1.32376 3.44821 4.79081 6973532
-1.31972 3.29003 4.77661 6906966
-1.31161 3.12906 4.74815 6775380
-1.30348 2.96757 4.71959 6513244
-1.29122 2.80275 4.67659 6775382
-1.28303 2.64009 4.64781 6446170
-1.26655 2.47073 4.58997 6446167
-1.25827 2.30673 4.5609 6445902
-1.24164 2.13546 4.5025 6380376
-1.22909 1.9666 4.45844 6380890
-1.21648 1.79692 4.41417 6247251
-1.19532 1.61875 4.3399 5985105
-1.18255 1.44709 4.29505 5985868
-1.16541 1.27045 4.2349 5985614
-1.14384 1.08833 4.15915 5987150
-1.12645 0.909178 4.0981 5985101
0.994149 5.79053 -2.56056 3157037
-1.75666 5.78978 4.83649 4209210
-1.79178 5.63914 4.93091 6906968
-1.79178 5.48569 4.93091 6972772
-1.78679 5.33148 4.91749 6972509
-1.78179 5.17702 4.90404 7170138
-1.77678 5.02233 4.89058 7038305
-1.77176 4.86738 4.87709 6972259
-1.76171 4.71094 4.85005 7236194
-1.75666 4.55538 4.83649 6775907
-1.75162 4.39958 4.82292 6907231
-1.74656 4.24353 4.80933 6972261
-1.7415 4.08723 4.79571 6972511
-1.73135 3.9288 4.76841 6841703
-1.72626 3.77188 4.75473 6840663
-1.71606 3.61258 4.7273 6447716
-1.71095 3.45503 4.71355 6841173
-1.69556 3.29243 4.67218 6775645
-1.69041 3.13413 4.65834 6446945
-1.6801 2.97291 4.6306 6578771
-1.66456 2.80837 4.58883 6642767
-1.64896 2.64303 4.54685 6447451
-1.63851 2.47998 4.51876 6379607
-1.61751 2.30996 4.46229 6249809
-1.60167 2.14221 4.41971 6182485
-1.58043 1.97013 4.3626 6378810
-1.56442 1.80059 4.31952 6182468
-1.54293 1.6264 4.26176 5919573
-1.52131 1.45107 4.20362 5592140
-1.505 1.27872 4.15976 5788479
-1.48313 1.10123 4.10095 5723214
-1.46112 0.922565 4.04175 5656387
1.20448 5.78995 -2.50159 2500645
-2.12462 5.78938 4.67062 4406836
-2.1671 5.63862 4.76214 6906203
-2.16106 5.48441 4.74913 6972509
-2.15501 5.32995 4.7361 6775647
-2.14895 5.17525 4.72304 6972514
-2.14288 5.02031 4.70997 6907231
-2.13681 4.86512 4.69687 6841441
-2.13072 4.70968 4.68376 6907234
-2.12462 4.554 4.67062 6841688
-2.1124 4.39657 4.64429 6775645
-2.10627 4.24027 4.63109 6775393
-2.10014 4.08372 4.61787 6775645
-2.09399 3.92692 4.60463 6579035
-2.08783 3.76987 4.59137 6643544
-2.07549 3.61044 4.56478 6579039
-2.06311 3.45049 4.53811 6579035
-2.05069 3.29003 4.51135 6643532
-2.03823 3.12906 4.48451 6512223
-2.02574 2.96757 4.45758 6512212
-2.01319 2.80556 4.43057 6446430
-1.98799 2.63714 4.37627 6446165
-1.97533 2.47382 4.349 5985103
-1.95626 2.30673 4.30791 6117200
-1.9371 2.13884 4.26663 5984595
-1.91141 1.9666 4.21128 5919571
-1.89203 1.79692 4.16952 5919054
-1.87255 1.6264 4.12757 5788996
-1.83988 1.44709 4.05718 5656404
-1.82015 1.27459 4.01467 5656902
-1.78704 1.09264 3.94334 5788744
-1.76036 0.913648 3.88586 5788757
1.36793 5.7911 -2.34771 2565667
-2.49873 5.79019 4.51474 4603451
-2.54108 5.63914 4.58991 6906455
-2.54108 5.48569 4.58991 6644830
-2.53405 5.33148 4.57743 6775896
-2.52701 5.17702 4.56493 6906968
-2.51289 5.02132 4.53988 6907234
-2.50582 4.86625 4.52732 6906970
-2.49873 4.71094 4.51474 6907220
-2.49873 4.55676 4.51474 6775909
-2.48452 4.39958 4.48953 6841175
-2.47027 4.2419 4.46424 6907231
-2.46313 4.08548 4.45156 6841700
-2.45598 3.9288 4.43886 6447464
-2.44163 3.76987 4.4134 6906968
-2.42724 3.61044 4.38787 6513244
-2.42003 3.45276 4.37507 6577491
-2.40557 3.29243 4.34941 6512223
-2.39107 3.13159 4.32367 6447453
-2.37652 2.97024 4.29785 6380374
-2.36192 2.80837 4.27194 6445904
-2.33994 2.64303 4.23292 6249558
-2.31785 2.4769 4.19372 6051148
-2.29565 2.30996 4.15432 5985351
-2.27335 2.14221 4.11474 6051407
-2.24344 1.97013 4.06165 5789524
-2.21333 1.79692 4.00822 6050896
-2.19062 1.6264 3.96792 5590861
-2.16017 1.45107 3.91388 5722961
-2.1372 1.27872 3.87312 5590858
-2.09867 1.09694 3.80472 5789007
-2.05981 0.913648 3.73577 5592140
1.58099 5.78995 -2.28237 2565412
-2.82911 5.78938 4.28076 4603198
-2.87738 5.6381 4.3526 6906456
-2.87738 5.48441 4.3526 6906970
-2.86134 5.32919 4.32872 7038043
-2.8533 5.17436 4.31676 6840925
-2.84525 5.0193 4.30478 6972259
-2.84525 4.86512 4.30478 6644833
-2.82911 4.70842 4.28076 6906979
-2.82102 4.55262 4.26872 6972511
-2.81292 4.39657 4.25666 6776162
-2.8048 4.24027 4.24458 6841188
-2.79667 4.08372 4.23248 6840925
-2.78038 3.92503 4.20823 6644578
-2.76403 3.76584 4.1839 6775895
-2.75584 3.60829 4.17171 6775132
-2.73941 3.44821 4.14726 6578787
-2.73118 3.29003 4.13501 6774614
-2.7064 3.12652 4.09814 6447966
-2.68981 2.96489 4.07345 6381404
-2.67318 2.80275 4.04869 6381399
-2.64812 2.63714 4.0114 6380374
-2.62294 2.47073 3.97393 6182743
-2.59764 2.3035 3.93628 6248527
-2.56371 2.13208 3.88579 6249546
-2.53812 1.96308 3.84771 6052956
-2.5124 1.79324 3.80944 6116689
-2.48656 1.62258 3.77098 5916487
-2.45191 1.44709 3.7194 5919560
-2.41703 1.27045 3.66749 5656390
-2.38191 1.09264 3.61524 5658700
-2.3377 0.909178 3.54943 5656915
1.71835 5.7911 -2.10482 2631207
-3.15625 5.78938 4.04559 4867644
-3.21001 5.6381 4.11342 6840662
-3.21001 5.48441 4.11342 6973283
-3.19215 5.32919 4.09088 6579300
-3.1832 5.17436 4.07959 7039074
-3.17423 5.0193 4.06827 6907234
-3.17423 4.86512 4.06827 7170651
-3.15625 4.70842 4.04559 6907749
-3.14724 4.55262 4.03422 6972509
-3.13822 4.39657 4.02284 7038812
-3.12013 4.23863 4.00001 6973797
-3.12013 4.08372 4.00001 6775647
-3.11106 3.92692 3.98857 6840927
-3.09288 3.76786 3.96564 6840923
-3.07465 3.60829 3.94263 6644578
-3.05635 3.44821 3.91955 6841176
-3.038 3.28762 3.89639 6644580
-3.0288 3.12906 3.88479 6644054
-3.00112 2.96489 3.84986 6643547
-2.98259 2.80275 3.82648 6774623
-2.95469 2.63714 3.79127 6578520
-2.92664 2.47073 3.75589 6380374
-2.89847 2.3035 3.72034 6446678
-2.87961 2.13884 3.69654 6116941
-2.83219 1.96308 3.6367 6118488
-2.80354 1.79324 3.60057 6116687
-2.77477 1.62258 3.56426 5985101
-2.72649 1.4431 3.50334 6117453
-2.69733 1.27045 3.46655 5722964
-2.65822 1.09264 3.41721 5920848
-2.61886 0.913648 3.36755 5789257
1.89836 5.79053 -1.98521 2827306
-3.45406 5.78897 3.77486 5130046
-3.51307 5.63758 3.83836 6972511
-3.51307 5.48377 3.83836 6972762
-3.49346 5.32842 3.81726 7038821
-3.48364 5.17347 3.80668 7038291
-3.47379 5.01828 3.79609 6906456
-3.46394 4.86285 3.78548 6972775
-3.45406 4.70716 3.77486 7039074
-3.43427 4.54985 3.75355 7236196
-3.43427 4.39506 3.75355 6841186
-3.41441 4.23699 3.73218 6908004
-3.40446 4.08019 3.72147 7038042
-3.39449 3.92314 3.71075 6907231
-3.37451 3.76382 3.68924 6906453
-3.35446 3.60399 3.66766 6840925
-3.34441 3.44593 3.65685 6775380
-3.32426 3.28521 3.63517 6842211
-3.30405 3.12397 3.61343 6185325
-3.28378 2.96222 3.59161 6643544
-3.25325 2.79712 3.55875 6643034
-3.22257 2.63123 3.52573 6512476
-3.19174 2.46453 3.49255 6511960
-3.1711 2.30026 3.47034 6182996
-3.12963 2.12869 3.42571 6380624
-3.09834 1.95954 3.39204 6185311
-3.05639 1.78587 3.3469 6184016
-3.01417 1.61107 3.30146 6379605
-2.98231 1.43911 3.26718 6051157
-2.9396 1.26215 3.22121 5920598
-2.88581 1.0797 3.16333 6181706
-2.84246 0.900216 3.11667 6118220
2.02646 5.7911 -1.81009 2565412
-3.73959 5.78897 3.49222 5196364
-3.8034 5.63758 3.5509 6972496
-3.7928 5.48312 3.54115 7038042
-3.77157 5.32765 3.52162 6907234
-3.77157 5.17347 3.52162 7169887
-3.75026 5.01727 3.50203 7169890
-3.75026 4.86285 3.50203 7169892
-3.72889 4.7059 3.48238 7039071
-3.71818 4.54985 3.47253 7039076
-3.71818 4.39506 3.47253 7038305
-3.69671 4.23699 3.45279 7169892
-3.68595 4.08019 3.44289 6972514
-3.67517 3.92314 3.43298 6841700
-3.66437 3.76584 3.42305 6840927
-3.64272 3.60614 3.40315 6907234
-3.62101 3.44593 3.38318 6776162
-3.59923 3.28521 3.36315 6840923
-3.58831 3.12652 3.35311 6775134
-3.55545 2.96222 3.32289 6841176
-3.52244 2.79712 3.29253 6578787
-3.50034 2.63419 3.27221 6445917
-3.46705 2.46763 3.2416 6511963
-3.42242 2.29702 3.20056 6380885
-3.38876 2.12869 3.1696 6183767
-3.34361 1.956 3.12809 6446170
-3.30956 1.78587 3.09678 6444884
-3.2639 1.61107 3.05479 6249047
-3.22946 1.43911 3.02312 6050896
-3.18327 1.26215 2.98065 6051146
-3.13678 1.08402 2.93789 5789521
-3.07822 0.900216 2.88405 5723476
2.2089 5.78995 -1.68211 2763046
-3.97917 5.78816 3.1701 5591107
-4.04761 5.63653 3.22376 7170140
-4.03624 5.48183 3.21485 6972762
-4.02486 5.32688 3.20593 6842211
-4.00206 5.1708 3.18805 6973793
-3.99062 5.01523 3.17908 6973281
-3.99062 4.86057 3.17908 6973532
-3.9677 4.70337 3.16111 6973797
-3.9677 4.54846 3.16111 7235418
-3.94471 4.39051 3.14308 7039076
-3.92164 4.23206 3.12499 6907752
-3.92164 4.07665 3.12499 6907739
-3.91008 3.91935 3.11593 6775393
-3.88691 3.75977 3.09776 6842460
-3.87529 3.60184 3.08865 6841441
-3.852 3.44136 3.07039 6645091
-3.82864 3.28038 3.05207 6579039
-3.8052 3.11887 3.03369 6644580
-3.76991 2.95415 3.00601 6512991
-3.74628 2.79147 2.98749 6775132
-3.7107 2.6253 2.95958 6447716
-3.68688 2.46142 2.94091 6380372
-3.63901 2.29052 2.90337 6512211
-3.6029 2.1219 2.87506 6381399
-3.55449 1.9489 2.8371 6118236
-3.51796 1.77848 2.80846 6380625
-3.48126 1.60722 2.77968 5722961
-3.43205 1.4311 2.74109 5985364
-3.38251 1.25382 2.70225 5657685
-3.33264 1.07537 2.66314 6116423
-3.28243 0.895724 2.62378 5526349
2.30934 5.79053 -1.48719 2827546
-4.22775 5.78857 2.85618 5459785
-4.28806 5.63653 2.89626 6841176
-4.27604 5.48183 2.88826 6906716
-4.25193 5.32611 2.87225 6906968
-4.25193 5.17169 2.87225 6841176
-4.22775 5.01523 2.85618 6972509
-4.22775 4.86057 2.85618 6841173
-4.21563 4.70463 2.84813 6972759
-4.19133 4.54706 2.83199 6775895
-4.17915 4.39051 2.82389 6840923
-4.16696 4.23371 2.81579 6840923
-4.15474 4.07665 2.80767 6644054
-4.1425 3.91935 2.79954 6578787
-4.13025 3.7618 2.7914 6775130
-4.10568 3.60184 2.77508 6577754
-4.08103 3.44136 2.7587 6644053
-4.0563 3.28038 2.74227 6644063
-4.03149 3.11887 2.72579 6644054
-4.00661 2.95685 2.70925 6381399
-3.96913 2.79147 2.68435 6446932
-3.93146 2.6253 2.65932 6184531
-3.90625 2.46142 2.64257 5920598
-3.86829 2.29377 2.61735 6181966
-3.81737 2.1219 2.58352 6117974
-3.77897 1.95246 2.558 5984597
-3.71454 1.77477 2.5152 6249047
-3.67563 1.60336 2.48935 6116175
-3.63653 1.4311 2.46337 5657685
-3.58409 1.25382 2.42853 5590858
-3.53131 1.07537 2.39346 5722433
-3.47817 0.895724 2.35815 5525063
2.4969 5.78879 -1.34483 2893854
-4.41336 5.78776 2.50151 5590856
-4.46418 5.63496 2.52979 6775907
-4.4515 5.47988 2.52274 6840923
-4.42609 5.32379 2.50859 6775647
-4.42609 5.169 2.50859 6841176
-4.41336 5.01319 2.50151 6840923
-4.4006 4.85713 2.49441 6775643
-4.38783 4.70083 2.48729 6906718
-4.37504 4.54427 2.48017 6840927
-4.36222 4.38747 2.47304 6906456
-4.33652 4.22876 2.45874 6906716
-4.33652 4.07311 2.45874 6775895
-4.31075 3.91364 2.44439 6776162
-4.28489 3.75367 2.43 6644063
-4.27193 3.59535 2.42279 6775130
-4.23293 3.43218 2.40108 6644053
-4.23293 3.27553 2.40108 6446945
-4.19374 3.11119 2.37926 6446678
-4.1675 2.94876 2.36466 6511960
-4.14118 2.78581 2.35001 6184542
-4.10155 2.61935 2.32795 6182746
-4.06172 2.45208 2.30578 6249560
-4.02169 2.28399 2.2835 6118486
-3.98147 2.11508 2.26111 6052693
-3.92753 1.94178 2.23109 6051159
-3.88685 1.77106 2.20844 5788492
-3.83229 1.59563 2.17808 5590597
-3.77737 1.41904 2.14751 5722964
-3.72209 1.24128 2.11674 5525843
-3.66644 1.06234 2.08576 5787208
-3.61042 0.882204 2.05458 5525316
2.5676 5.78937 -1.13236 8979251
-4.59602 5.78776 2.14753 10953798
-4.6489 5.63496 2.17174 11287917
-4.6489 5.48053 2.17174 10896733
-4.6225 5.32457 2.15965 11421016
-4.60927 5.169 2.15359 10830945
-4.60927 5.01421 2.15359 10046047
-4.59602 4.85828 2.14753 10699620
-4.56946 4.70083 2.13536 10893155
-4.55614 4.54427 2.12927 10177633
-4.54281 4.38747 2.12316 11158631
-4.52945 4.23041 2.11704 10374757
-4.51607 4.07311 2.11092 10567766
-4.48925 3.91364 2.09864 10959986
-4.4758 3.75571 2.09249 9719906
-4.44885 3.59535 2.08015 9522270
-4.42182 3.43448 2.06777 9327458
-4.39469 3.27309 2.05535 9717854
-4.3811 3.11375 2.04912 9719903
-4.34018 2.94876 2.03039 9258320
-4.3128 2.78581 2.01785 8867156
-4.25776 2.61636 1.99265 8930651
-4.2301 2.45208 1.97999 8669276
-4.17453 2.28072 1.95454 8932963
-4.1326 2.11167 1.93535 8669774
-4.09047 1.94178 1.91606 8013395
-4.03398 1.76734 1.8902 8210512
-3.99137 1.59563 1.87068 8209992
-3.93422 1.41904 1.84452 7881553
-3.87669 1.24128 1.81818 7684428
-3.81878 1.06234 1.79167 7554388
-3.76049 0.882204 1.76498 7292228
2.7046 5.78821 -0.947944 4142384
-4.70916 5.78653 1.76523 7695971
-4.75035 5.63284 1.78031 8683380
-4.73664 5.47728 1.77529 8616564
-4.72291 5.32146 1.77027 8814458
-4.70916 5.1654 1.76523 8683640
-4.70916 5.01012 1.76523 8813422
-4.69538 4.85369 1.76019 8616564
-4.68159 4.697 1.75514 8354415
-4.65393 4.53866 1.74502 8551794
-4.64007 4.38135 1.73995 8353902
-4.62618 4.22379 1.73487 8419694
-4.61228 4.06597 1.72978 8288882
-4.59835 3.90791 1.72468 8288368
-4.57042 3.74754 1.71446 8222841
-4.55643 3.58883 1.70934 8223091
-4.52837 3.42757 1.69907 8222578
-4.5143 3.26822 1.69392 8090727
-4.48611 3.10604 1.68361 8025447
-4.45782 2.94335 1.67325 8090729
-4.40097 2.77442 1.65245 7893104
-4.37241 2.61038 1.64199 7629674
-4.32939 2.44269 1.62625 7630175
-4.27171 2.27088 1.60514 7499102
-4.24273 2.10482 1.59454 7301476
-4.19907 1.93464 1.57856 7301464
-4.14053 1.75989 1.55714 7169875
-4.09637 1.58788 1.54098 7168856
-4.03715 1.41097 1.51931 6840925
-3.97754 1.23289 1.49749 6840663
-3.91753 1.05362 1.47553 6643036
-3.84196 0.868615 1.44787 6577243
2.74185 5.78879 -0.72478 7546941
-4.81901 5.78612 1.38637 11951218
-4.86132 5.63231 1.39819 12022658
-4.86132 5.47728 1.39819 11500925
-4.83314 5.32068 1.39031 11564408
-4.83314 5.1654 1.39031 11434356
-4.81901 5.00909 1.38637 11761017
-4.80486 4.85253 1.38242 11434107
-4.79069 4.69572 1.37846 11695226
-4.77649 4.53866 1.3745 11172480
-4.76228 4.38135 1.37053 11172475
-4.74804 4.22379 1.36655 10714749
-4.73377 4.06597 1.36257 10582653
-4.70518 3.90599 1.35459 10321794
-4.67649 3.74549 1.34658 10582153
-4.66212 3.58665 1.34256 10059129
-4.63329 3.42525 1.33451 9927540
-4.61884 3.26578 1.33048 9862510
-4.57536 3.10089 1.31834 9730935
-4.56082 2.94063 1.31428 9469295
-4.51706 2.77442 1.30206 9272693
-4.47308 2.60739 1.28978 9010043
-4.42889 2.43954 1.27744 8616567
-4.36963 2.26759 1.26089 8419705
-4.32493 2.09795 1.24841 8288618
-4.28001 1.92747 1.23587 8353128
-4.23487 1.75615 1.22327 8222562
-4.1895 1.58399 1.2106 8351839
-4.11339 1.40287 1.18935 7892841
-4.05205 1.22446 1.17222 7893091
-3.9903 1.04487 1.15497 7892843
-3.92813 0.86407 1.13762 8088403
2.84899 5.78763 -0.518946 4734258
-4.88407 5.7853 0.998341 8354148
-4.92732 5.63125 1.00682 9339759
-4.91293 5.47531 1.004 9275253
-4.88407 5.31834 0.998341 9274494
-4.88407 5.16269 0.998341 9864816
-4.86961 5.006 0.995501 9537401
-4.85513 4.84906 0.992661 9471611
-4.84062 4.69187 0.989815 9471858
-4.82609 4.53443 0.986963 9537138
-4.81153 4.37674 0.984106 9340797
-4.79695 4.21879 0.981248 9208951
-4.78235 4.0606 0.97838 9340023
-4.75308 3.90022 0.972637 9208703
-4.73841 3.74138 0.969762 9208951
-4.70899 3.5801 0.96399 9208951
-4.67948 3.41829 0.9582 9339773
-4.66469 3.25843 0.955297 9208954
-4.63504 3.09571 0.949477 9012094
-4.59038 2.92973 0.940716 8945781
-4.56049 2.76582 0.934848 9142127
-4.51546 2.59837 0.926018 8683129
-4.47022 2.43009 0.917139 8682357
-4.42475 2.26099 0.90822 8551024
-4.36378 2.0876 0.896256 8353901
-4.33314 1.92028 0.890244 8614497
-4.27157 1.74491 0.878162 8419428
-4.20959 1.56837 0.866001 8353118
-4.16283 1.39474 0.856826 8024933
-4.10012 1.21601 0.844522 8090727
-4.02115 1.03169 0.829027 7893615
-3.9575 0.85039 0.816537 7958370
2.85116 5.78821 -0.290373 4079154
-4.93271 5.78489 0.610367 8288119
-4.97656 5.63072 0.615441 9339763
-4.96196 5.47465 0.613757 9275002
-4.94735 5.31834 0.612064 9340797
-4.94735 5.16269 0.612064 9472109
-4.91804 5.00496 0.608672 9340546
-4.91804 4.84906 0.608672 9340795
-4.90336 4.69187 0.606973 9274494
-4.88865 4.53443 0.60527 9340026
-4.87391 4.37674 0.603564 9143161
-4.84437 4.21712 0.600145 9209472
-4.82957 4.0588 0.598433 9275002
-4.81474 3.90022 0.596716 9142910
-4.78501 3.73932 0.593278 9143930
-4.75519 3.5779 0.589828 9208953
-4.74024 3.41829 0.588098 9011832
-4.71027 3.25597 0.58463 9012345
-4.6802 3.09311 0.581148 8945531
-4.65004 2.92973 0.577659 9011058
-4.60461 2.76295 0.572403 8946301
-4.55895 2.59535 0.567117 8617336
-4.51308 2.42693 0.561812 8616816
-4.46698 2.25768 0.556475 8551023
-4.42065 2.0876 0.551115 8354414
-4.37409 1.91668 0.545726 8353131
-4.31165 1.74115 0.5385 8287335
-4.2488 1.56445 0.531227 8221782
-4.20139 1.39067 0.525742 7959140
-4.13781 1.21177 0.518383 8025185
-4.0738 1.03169 0.510976 7893093
-4.00936 0.85039 0.503519 7827549
2.95517 5.78646 -0.0690825 3881524
-4.93586 5.78407 0.220388 8286821
-4.96539 5.62911 0.22147 9143161
-4.96539 5.47333 0.22147 9012082
-4.93586 5.31598 0.220388 9011832
-4.93586 5.15996 0.220388 9208426
-4.92107 5.00289 0.219845 9208951
-4.90624 4.84557 0.2193 9011828
-4.8914 4.688 0.218758 9011831
-4.87653 4.53018 0.21821 9143160
-4.86163 4.37211 0.217664 9012344
-4.83177 4.2121 0.216572 9011325
-4.81681 4.05338 0.216021 9011832
-4.80182 3.89441 0.215472 8946303
-4.77177 3.73312 0.21437 8945267
-4.74162 3.5713 0.213265 8946298
-4.72651 3.4113 0.212707 8880759
-4.69621 3.24857 0.2116 8814709
-4.66581 3.08531 0.210484 8879725
-4.63532 2.92152 0.209365 8814195
-4.60473 2.75719 0.208243 8551274
-4.55865 2.5893 0.206552 8615786
-4.49687 2.41741 0.204285 8616299
-4.45026 2.24773 0.202576 8352880
-4.40342 2.0772 0.200856 8288621
-4.35635 1.90583 0.19913 8287575
-4.29323 1.72983 0.196815 8024933
-4.24562 1.55659 0.195066 7893598
-4.18176 1.3784 0.192724 7827048
-4.11747 1.19902 0.190367 7695213
-4.05276 1.01844 0.187995 7695972
-3.9876 0.836641 0.185605 7629672
2.95148 5.78646 0.162993 4208437
-4.92314 5.78366 -0.166935 7959403
-4.96746 5.62911 -0.168793 8880239
-4.95271 5.47267 -0.168174 8880239
-4.93794 5.31598 -0.167555 8879736
-4.92314 5.15904 -0.166935 8880239
-4.90833 5.00185 -0.166315 8879989
-4.90833 4.84557 -0.166315 8683630
-4.89348 4.688 -0.165691 8815215
-4.86373 4.52876 -0.164447 8814458
-4.86373 4.37211 -0.164447 8814706
-4.83387 4.2121 -0.163193 8879988
-4.81891 4.05338 -0.162568 8682863
-4.80392 3.89441 -0.161938 8616567
-4.77388 3.73312 -0.160679 8551284
-4.74373 3.5713 -0.159416 8419694
-4.71349 3.40896 -0.158152 8617587
-4.69833 3.24857 -0.157513 8616553
-4.66795 3.08531 -0.15624 8353901
-4.62218 2.91877 -0.154325 8288119
-4.59154 2.7543 -0.153043 8222578
-4.56081 2.5893 -0.151753 8024165
-4.49903 2.41741 -0.149165 7892841
-4.45243 2.24773 -0.147212 7893598
-4.40561 2.0772 -0.145252 7695969
-4.34281 1.9022 -0.142621 7696222
-4.29544 1.72983 -0.140635 7630178
-4.23191 1.55265 -0.137973 7499105
-4.16796 1.3743 -0.135295 7367258
-4.10358 1.19476 -0.132598 7367007
-4.03877 1.01401 -0.12988 7234916
-3.98987 0.836641 -0.127831 7562326
2.98954 5.78528 0.401315 3813933
-4.8654 5.78283 -0.549118 7959907
-4.90957 5.62804 -0.554464 8879471
-4.89487 5.47135 -0.552686 8814192
-4.8654 5.31362 -0.549118 8813422
-4.85063 5.1563 -0.547329 8683376
-4.83583 4.99872 -0.545543 8682357
-4.83583 4.84207 -0.545543 8551284
-4.82101 4.68412 -0.543746 8616816
-4.80617 4.52591 -0.541951 8419442
-4.77641 4.36589 -0.538351 8419442
-4.76149 4.20705 -0.536545 8419691
-4.74655 4.04795 -0.534738 8616302
-4.73159 3.88859 -0.532929 8288373
-4.7166 3.72897 -0.531113 8288368
-4.68655 3.56688 -0.527481 8091499
-4.6413 3.40192 -0.522002 8222575
-4.62616 3.24113 -0.52017 8288618
-4.59582 3.07746 -0.516501 7959403
-4.56538 2.91326 -0.512815 8090200
-4.51953 2.74561 -0.507268 7827301
-4.47346 2.57715 -0.501695 7564648
-4.42716 2.40785 -0.496092 7630175
-4.38063 2.23772 -0.490464 7367517
-4.33387 2.06675 -0.484806 7302495
-4.28688 1.89492 -0.479119 7301724
-4.22386 1.71845 -0.471492 7300950
-4.17632 1.54476 -0.465742 6906970
-4.11257 1.36608 -0.458028 7037265
-4.04838 1.18621 -0.450263 7299393
-3.98377 1.00513 -0.442441 6906205
-3.90238 0.818201 -0.432597 7037275
2.94884 5.78528 0.634632 3684145
-4.79273 5.78241 -0.926218 7696232
-4.85093 5.62804 -0.937956 8616036
-4.82188 5.47069 -0.932099 8353898
-4.79273 5.31283 -0.926218 8354411
-4.79273 5.1563 -0.926218 8419694
-4.77812 4.99872 -0.923276 8419945
-4.76349 4.8409 -0.920322 8353653
-4.74883 4.68282 -0.917368 8288107
-4.73415 4.52448 -0.91441 8288373
-4.71945 4.36589 -0.911444 8287602
-4.70472 4.20705 -0.908474 8222565
-4.67519 4.04613 -0.902523 8090980
-4.66039 3.88664 -0.899537 8025450
-4.64557 3.72689 -0.896551 7893093
-4.61585 3.56467 -0.890556 7827563
-4.58603 3.40192 -0.884545 7697003
-4.55612 3.23864 -0.878514 7828069
-4.52611 3.07484 -0.872464 7827549
-4.49601 2.91049 -0.866393 7498337
-4.45066 2.74271 -0.857254 7234914
-4.42031 2.57715 -0.851132 7236199
-4.37459 2.40785 -0.841914 7037528
-4.32864 2.23772 -0.832652 7038293
-4.26703 2.06325 -0.820231 6906453
-4.22055 1.89128 -0.810859 6840660
-4.15823 1.71464 -0.798292 6643281
-4.11121 1.5408 -0.788814 6644053
-4.04815 1.36196 -0.776098 6446156
-3.98466 1.18192 -0.763297 6380625
-3.92075 1.00067 -0.750411 6380372
-3.85641 0.818201 -0.737441 6249047
2.94831 5.7841 0.88066 3880239
-4.67659 5.78158 -1.29122 8025449
-4.71959 5.62642 -1.30347 8616814
-4.69095 5.46869 -1.29531 8682863
-4.66221 5.31044 -1.28713 8682866
-4.66221 5.15354 -1.28713 8682867
-4.63339 4.99453 -1.27892 8879988
-4.63339 4.83737 -1.27892 8683117
-4.60446 4.6776 -1.27068 8879988
-4.60446 4.52018 -1.27068 8682866
-4.58997 4.36121 -1.26655 8419695
-4.57545 4.20197 -1.26241 8419955
-4.54634 4.04065 -1.25413 8419695
-4.53175 3.88077 -1.24997 8420729
-4.51713 3.72063 -1.24581 8616040
-4.48784 3.558 -1.23746 8287599
-4.45844 3.39485 -1.22909 8287602
-4.44371 3.23366 -1.22489 8025187
-4.41417 3.06958 -1.21648 8090978
-4.38454 2.90496 -1.20803 7959143
-4.32497 2.73396 -1.19107 7893860
-4.29505 2.56798 -1.18255 7630429
-4.24997 2.39824 -1.16971 7499880
-4.20467 2.22767 -1.1568 7499093
-4.14393 2.05273 -1.1395 7564129
-4.0981 1.8803 -1.12645 7497822
-4.03664 1.70319 -1.10894 7301474
-3.97477 1.5249 -1.09132 7301727
-3.9281 1.34955 -1.07803 7037794
-3.86551 1.16902 -1.06019 6971732
-3.80249 0.98727 -1.04224 6840923
-3.73904 0.804289 -1.02417 6906205
2.81326 5.78528 1.08812 2697754
-4.56087 5.78158 -1.65416 5919561
-4.58883 5.62588 -1.66456 6644054
-4.57486 5.46869 -1.65937 6840925
-4.56087 5.31124 -1.65416 6906453
-4.54685 5.15354 -1.64895 6512996
-4.53282 4.99558 -1.64374 6840923
-4.51876 4.83737 -1.63851 6840660
-4.50468 4.67891 -1.63327 6840662
-4.49057 4.52018 -1.62803 6840156
-4.47645 4.36121 -1.62277 6579039
-4.4623 4.20197 -1.61751 6513242
-4.43393 4.04065 -1.60696 6775645
-4.41971 3.88077 -1.60167 6512223
-4.40547 3.72063 -1.59638 6513495
-4.3626 3.55577 -1.58044 6511960
-4.34826 3.39485 -1.5751 6578771
-4.31952 3.23116 -1.56441 6445904
-4.29069 3.06694 -1.55369 6380876
-4.26176 2.90218 -1.54293 6118236
-4.21819 2.73396 -1.52673 6050894
-4.18903 2.56798 -1.51589 5920586
-4.13041 2.39503 -1.49408 6380622
-4.08619 2.2243 -1.47764 6115404
-4.04175 2.05273 -1.46112 5723214
-3.98215 1.87663 -1.43895 5920598
-3.9522 1.70702 -1.42782 5918277
-3.89201 1.52888 -1.40543 5787462
-3.83141 1.34955 -1.3829 5328720
-3.77041 1.16902 -1.36021 5590856
-3.69357 0.982787 -1.33163 5656401
-3.63164 0.799636 -1.3086 5196101
2.80185 5.78351 1.34385 2433826
-4.37627 5.78033 -1.98799 6117453
-4.40346 5.62426 -2.00062 6446417
-4.37627 5.46601 -1.98799 6840923
-4.37627 5.30885 -1.98799 6906716
-4.349 5.14984 -1.97533 6841438
-4.349 4.99242 -1.97533 6841424
-4.33533 4.83383 -1.96898 6644833
-4.32163 4.67497 -1.96263 7038307
-4.30791 4.51586 -1.95627 6906203
-4.29418 4.3565 -1.94989 6446942
-4.28042 4.19687 -1.9435 6578785
-4.26664 4.03699 -1.9371 6511963
-4.239 3.87487 -1.92428 6513495
-4.22515 3.71434 -1.91785 6577488
-4.19738 3.55131 -1.90496 6511963
-4.16952 3.38774 -1.89203 6447448
-4.15556 3.22615 -1.88554 6577754
-4.11353 3.059 -1.86604 6380109
-4.09948 2.89661 -1.85951 6249558
-4.04303 2.72517 -1.83331 6182993
-4.00045 2.55568 -1.81355 6249546
-3.97194 2.38859 -1.80032 6051657
-3.91465 2.21418 -1.77372 5919052
-3.87143 2.04216 -1.75366 5985614
-3.828 1.86927 -1.7335 5590606
-3.76974 1.69168 -1.70646 5920086
-3.7258 1.5169 -1.68606 5525328
-3.66686 1.33708 -1.65871 5722961
-3.60753 1.15605 -1.63116 5591107
-3.54779 0.973799 -1.60344 5328195
-3.48765 0.790306 -1.57553 5262915
2.66126 5.7841 1.54459 2434592
-4.19372 5.77991 -2.31785 5723478
-4.23292 5.62426 -2.33994 6774611
-4.20681 5.46601 -2.32522 6841173
-4.19372 5.30805 -2.31785 6644054
-4.1806 5.14984 -2.31047 6906453
-4.1806 4.99242 -2.31047 6840910
-4.16748 4.83383 -2.30306 6841176
-4.15432 4.67497 -2.29565 6579039
-4.12795 4.51442 -2.28079 6840673
-4.11474 4.35492 -2.27335 6446945
-4.08824 4.19346 -2.25842 6578787
-4.08824 4.03515 -2.25842 6578004
-4.06165 3.8729 -2.24344 6578525
-4.04833 3.71223 -2.23593 6643549
-4.02162 3.54906 -2.22088 6381399
-3.99481 3.38536 -2.20578 6512221
-3.98138 3.22364 -2.19821 6380372
-3.95444 3.059 -2.18303 6445905
-3.92743 2.89382 -2.1678 6183502
-3.87312 2.72223 -2.1372 5985879
-3.84583 2.55568 -2.12183 5787973
-3.79098 2.38212 -2.09092 5919821
-3.76342 2.21418 -2.0754 5788744
-3.70802 2.03862 -2.04418 5591110
-3.66623 1.86558 -2.02064 5591121
-3.61019 1.68783 -1.98906 5524554
-3.56791 1.5129 -1.96524 5524550
-3.5112 1.33291 -1.93329 5328206
-3.45412 1.15172 -1.90112 5327176
-3.41105 0.973799 -1.87685 4867390
-3.33878 0.785629 -1.83614 5130559
2.60783 5.78232 1.79968 2302240
-3.97393 5.77907 -2.62294 6051672
-3.99893 5.62262 -2.63974 6775380
-3.98644 5.46466 -2.63135 6577492
-3.97393 5.30645 -2.62294 6577738
-3.9614 5.14798 -2.61452 6380112
-3.94885 4.98925 -2.60609 6774611
-3.92369 4.82907 -2.58918 6775380
-3.92369 4.67102 -2.58918 6644318
-3.91108 4.51152 -2.5807 6513494
-3.88579 4.35018 -2.56371 6643547
-3.87312 4.19003 -2.55519 6840927
-3.87312 4.03147 -2.55519 6512212
-3.8477 3.86895 -2.53812 6511699
-3.82221 3.7059 -2.52099 6381402
-3.79664 3.54232 -2.5038 6118737
-3.78382 3.3806 -2.49519 6511183
-3.75812 3.21608 -2.47792 6248524
-3.73233 3.05103 -2.4606 6118236
-3.70646 2.88543 -2.44321 6247747
-3.66749 2.71634 -2.41703 5984583
-3.62833 2.54641 -2.39072 5721932
-3.58898 2.37564 -2.36427 5721932
-3.54943 2.20401 -2.3377 5592142
-3.50969 2.03153 -2.31099 5524554
-3.45638 1.85448 -2.27517 5459020
-3.40272 1.67624 -2.23911 5459272
-3.36224 1.50084 -2.21191 5327930
-3.30794 1.32036 -2.17542 5130823
-3.26698 1.14302 -2.1479 5261883
-3.19824 0.955729 -2.10172 5196101
-3.14284 0.771552 -2.06448 5064766
2.45859 5.78232 1.99874 2434341
-3.74406 5.77865 -2.91727 6116677
-3.77949 5.62262 -2.94535 6643547
-3.75589 5.46399 -2.92665 6774099
-3.74406 5.30564 -2.91727 6513242
-3.73221 5.14704 -2.90787 6578787
-3.72034 4.98819 -2.89847 6774614
-3.72034 4.83027 -2.89847 6644054
-3.69654 4.6697 -2.87961 6447451
-3.69654 4.51152 -2.87961 6578001
-3.67266 4.35018 -2.86068 6446942
-3.6607 4.19003 -2.8512 6511958
-3.63671 4.02777 -2.83218 6381149
-3.62468 3.86697 -2.82265 6577751
-3.61264 3.7059 -2.81311 6182743
-3.58848 3.54232 -2.79397 6118234
-3.56426 3.37821 -2.77477 6184277
-3.52777 3.21102 -2.74584 6118234
-3.51557 3.04836 -2.73617 6116687
-3.4911 2.88262 -2.71678 6182993
-3.46655 2.71634 -2.69733 5920071
-3.42958 2.54641 -2.66802 5919558
-3.37999 2.37238 -2.62872 5592393
-3.34259 2.20061 -2.59908 5657421
-3.31755 2.03153 -2.57923 5525065
-3.25459 1.85077 -2.52933 5197386
-3.21655 1.67624 -2.49919 5262663
-3.17833 1.50084 -2.46889 5327943
-3.12706 1.32036 -2.42826 5196870
-3.07545 1.13866 -2.38735 5260864
-3.02349 0.955729 -2.34617 5262915
-2.97117 0.771552 -2.30471 5064765
2.33915 5.78113 2.22725 2302757
-3.48146 5.7778 -3.18143 6051398
-3.50363 5.62098 -3.20203 6577751
-3.49255 5.46263 -3.19174 6511949
-3.47034 5.30323 -3.1711 6579035
-3.47034 5.14518 -3.1711 6577243
-3.44806 4.98499 -3.1504 6643549
-3.43689 4.82549 -3.14002 6775647
-3.42571 4.66573 -3.12963 6512994
-3.41451 4.5057 -3.11921 6841175
-3.40328 4.34542 -3.10879 6445656
-3.39204 4.18487 -3.09834 6578005
-3.38078 4.02407 -3.08788 6381404
-3.35821 3.86101 -3.0669 6380124
-3.3469 3.69954 -3.05639 6445652
-3.32422 3.53555 -3.03531 6380376
-3.31284 3.37342 -3.02475 6182733
-3.29005 3.20849 -3.00356 6118484
-3.25572 3.04033 -2.97166 6249043
-3.23273 2.87417 -2.95031 5985616
-3.19812 2.70449 -2.91814 5722447
-3.16332 2.53397 -2.88581 5918540
-3.14004 2.36587 -2.86417 5786949
-3.09322 2.19037 -2.82067 5787975
-3.05791 2.01728 -2.78786 5656404
-3.02242 1.84332 -2.75488 5590596
-2.97482 1.6646 -2.71065 5525051
-2.93891 1.48872 -2.67728 5262398
-2.87866 1.30353 -2.62129 5328458
-2.84226 1.12554 -2.58747 5064512
-2.80568 0.94665 -2.55347 5064763
-2.74429 0.757402 -2.49643 5196868
2.19892 5.77993 2.44929 2565153
-3.19025 5.77653 -3.41122 6183767
-3.21084 5.61933 -3.4336 6577491
-3.20056 5.4606 -3.42242 6841176
-3.19025 5.30161 -3.41122 6577488
-3.17994 5.14236 -3.39999 6841175
-3.1696 4.98286 -3.38876 6643549
-3.15925 4.82309 -3.3775 6906966
-3.14888 4.66306 -3.36622 6578520
-3.1385 4.50278 -3.35493 6841161
-3.12809 4.34223 -3.34361 6775383
-3.10723 4.17969 -3.32094 6512991
-3.09678 4.01848 -3.30956 6577503
-3.0863 3.85701 -3.29818 6511958
-3.07582 3.69528 -3.28677 6380372
-3.05479 3.53101 -3.2639 6248526
-3.03369 3.3662 -3.24096 6578774
-3.01253 3.20085 -3.21794 6380624
-2.99129 3.03496 -3.19485 6248278
-2.96998 2.86851 -3.17168 6182480
-2.93789 2.69854 -3.13678 6117200
-2.90564 2.52772 -3.1017 5985101
-2.88405 2.35933 -3.07822 5788480
-2.84065 2.18352 -3.03103 5723212
-2.79696 2.00653 -2.98352 5722180
-2.77501 1.83585 -2.95965 5590579
-2.73087 1.6568 -2.91166 5525051
-2.68645 1.47654 -2.86334 5459259
-2.65293 1.2993 -2.82689 5524538
-2.60797 1.11676 -2.77801 5262661
-2.56271 0.932971 -2.72879 5262400
-2.51714 0.747928 -2.67923 5130045
2.01906 5.77932 2.63861 2236449
-2.90337 5.77611 -3.63901 6249047
-2.93155 5.61933 -3.67494 6775130
-2.91278 5.45992 -3.651 6841176
-2.90337 5.3008 -3.63901 6577491
-2.89395 5.14142 -3.62699 6775382
-2.88452 4.98178 -3.61496 6841186
-2.87506 4.82189 -3.60291 6841173
-2.86559 4.66173 -3.59083 6841173
-2.85611 4.50131 -3.57874 6578785
-2.8371 4.33903 -3.55449 6775132
-2.82757 4.17796 -3.54234 6643547
-2.81802 4.01662 -3.53016 6511963
-2.80846 3.85501 -3.51796 6380887
-2.78929 3.69101 -3.49352 6380622
-2.77006 3.52646 -3.46899 6249797
-2.76042 3.36379 -3.4567 6512197
-2.74109 3.1983 -3.43205 6380622
-2.7217 3.03226 -3.40732 6249045
-2.70225 2.86568 -3.3825 6248273
-2.67294 2.69556 -3.34514 5918790
-2.64349 2.52459 -3.30758 6051911
-2.61389 2.35276 -3.26983 5918788
-2.58415 2.18008 -3.2319 5789005
-2.55425 2.00653 -3.19377 5919812
-2.51416 1.82835 -3.14264 5787973
-2.48391 1.65289 -3.10407 5522499
-2.45351 1.47654 -3.0653 5524800
-2.41274 1.29507 -3.01329 5460037
-2.37169 1.11235 -2.96094 5524813
-2.33035 0.928395 -2.90823 5459524
-2.29917 0.747928 -2.86846 5196859
1.78869 5.77993 2.76313 6032420
-2.61735 5.77653 -3.86828 8537933
-2.64258 5.61988 -3.90625 9129567
-2.63418 5.46128 -3.89362 8803152
-2.60891 5.3008 -3.85559 9261159
-2.60891 5.14236 -3.85559 8868703
-2.592 4.98178 -3.83013 9132645
-2.592 4.82309 -3.83013 8410977
-2.58352 4.66306 -3.81737 8345183
-2.57503 4.50278 -3.80459 8542282
-2.558 4.34063 -3.77897 8082529
-2.54947 4.17969 -3.76612 7822171
-2.54092 4.01848 -3.75326 8083290
-2.52379 3.85501 -3.72747 7691617
-2.5152 3.69315 -3.71454 7165018
-2.49798 3.52874 -3.68863 7166038
-2.4807 3.36379 -3.66262 7231561
-2.46337 3.1983 -3.63653 6773587
-2.45468 3.03496 -3.62345 6576208
-2.42852 2.86568 -3.5841 6378327
-2.40225 2.69556 -3.54454 6050896
-2.38465 2.52772 -3.51806 5789007
-2.34929 2.35276 -3.46484 5722445
-2.32261 2.18008 -3.42469 5919821
-2.2958 2.00653 -3.38433 5525317
-2.25984 1.82835 -3.33021 5656389
-2.24177 1.6568 -3.30301 5459524
-2.20545 1.47654 -3.24834 5525316
-2.16888 1.29507 -3.1933 5459509
-2.14129 1.11676 -3.15178 5459524
-2.09499 0.928395 -3.0821 5131589
-2.05767 0.743178 -3.02593 5064264
1.61163 5.77812 2.97622 2301730
-2.29094 5.77568 -4.03505 6380876
-2.30578 5.61822 -4.06171 6973269
-2.29094 5.45855 -4.03505 6840927
-2.2835 5.29917 -4.02169 6841436
-2.27605 5.13953 -4.0083 6841175
-2.26858 4.97964 -3.9949 6908002
-2.26111 4.81948 -3.98147 6973281
-2.25363 4.65906 -3.96802 6973269
-2.24612 4.49837 -3.95454 6841686
-2.23861 4.33743 -3.94105 6840923
-2.22356 4.17448 -3.91399 6907234
-2.21601 4.01287 -3.90043 6774623
-2.20087 3.84899 -3.87324 6775134
-2.19329 3.68672 -3.85962 6577238
-2.17808 3.5219 -3.83229 6775380
-2.17045 3.35896 -3.8186 6643533
-2.14751 3.19062 -3.77738 6643294
-2.13215 3.02416 -3.74978 6447701
-2.11673 2.85714 -3.72209 6052954
-2.10127 2.68957 -3.69431 6182230
-2.07799 2.51831 -3.65247 6182483
-2.05458 2.34618 -3.61042 6249045
-2.03106 2.17319 -3.56816 6050115
-2.00742 1.99933 -3.52569 6116173
-1.97571 1.82083 -3.46872 5721681
-1.94378 1.64113 -3.41137 6050633
-1.9197 1.4643 -3.3681 5721929
-1.8874 1.28232 -3.31007 5985351
-1.85488 1.0991 -3.25164 5788492
-1.82213 0.914623 -3.19282 5787472
-1.79743 0.733657 -3.14843 6050112
1.36021 5.77872 3.06524 2235671
-1.96092 5.77525 -4.18845 6249308
-1.97999 5.61822 -4.2301 6512211
-1.97364 5.45923 -4.21624 6643281
-1.96092 5.29917 -4.18845 6644304
-1.95454 5.13953 -4.17452 6775895
-1.94816 4.97964 -4.16057 6578017
-1.94176 4.81948 -4.1466 6579039
-1.93535 4.65906 -4.1326 6644304
-1.9225 4.4969 -4.10454 6512208
-1.91606 4.33582 -4.09047 6512991
-1.91606 4.17622 -4.09047 6511432
-1.90315 4.01287 -4.06227 6776147
-1.89668 3.851 -4.04814 6446683
-1.8837 3.68672 -4.0198 6380374
-1.87068 3.5219 -3.99137 6447702
-1.85762 3.35653 -3.96284 6380625
-1.84452 3.19062 -3.93422 6380372
-1.83137 3.02416 -3.9055 6249295
-1.82478 2.85999 -3.89111 6051148
-1.80495 2.68957 -3.84779 5985619
-1.77834 2.51516 -3.78969 5986127
-1.76498 2.34618 -3.76049 5656652
-1.73811 2.16974 -3.70181 5657935
-1.71784 1.99573 -3.65753 5657672
-1.69747 1.82083 -3.61304 5918790
-1.67014 1.64113 -3.55336 5524813
-1.64953 1.4643 -3.50834 5525054
-1.62188 1.28232 -3.44795 5262413
-1.59404 1.0991 -3.38715 5327945
-1.56601 0.914623 -3.32593 5196364
-1.54486 0.733657 -3.27975 5064504
1.1369 5.77751 3.22094 2170656
-1.61044 5.77397 -4.28616 6116940
-1.62626 5.61656 -4.32939 6643544
-1.62099 5.45718 -4.31501 6644567
-1.61044 5.29672 -4.28616 6578787
-1.61044 5.13764 -4.28616 6840923
-1.60515 4.97748 -4.27171 6578787
-1.59984 4.81706 -4.25723 6840673
-1.59453 4.65637 -4.24273 6906716
-1.58922 4.49543 -4.2282 6906455
-1.5839 4.33421 -4.21365 6578787
-1.57322 4.17099 -4.18447 6578787
-1.56787 4.00912 -4.16985 6578523
-1.55713 3.84496 -4.14053 6644051
-1.55176 3.68242 -4.12583 6511445
-1.53557 3.51502 -4.0816 6381151
-1.53015 3.35167 -4.06681 6512211
-1.5193 3.18547 -4.03715 6445905
-1.50841 3.01873 -4.0074 6249308
-1.49748 2.85143 -3.97754 6446167
-1.48103 2.68056 -3.93257 6051148
-1.46449 2.50884 -3.88738 5919821
-1.45342 2.33957 -3.85712 6116425
-1.43116 2.16281 -3.79631 5919054
-1.40876 1.98487 -3.73508 5919560
-1.3975 1.81329 -3.70431 5590606
-1.37487 1.63325 -3.64247 5590345
-1.35779 1.45611 -3.59581 5329233
-1.33489 1.27379 -3.53323 5459788
-1.31182 1.09022 -3.47022 5459788
-1.2886 0.905403 -3.40678 5328206
-1.26523 0.719311 -3.3429 5328708
0.880691 5.77751 3.30022 2235422
-1.27331 5.7744 -4.41411 6116940
-1.28568 5.61712 -4.45837 6644566
-1.28156 5.45787 -4.44364 6644054
-1.27744 5.29836 -4.42889 6577488
-1.26918 5.13764 -4.39931 6644828
-1.26504 4.97748 -4.38448 6578537
-1.2609 4.81706 -4.36963 6579287
-1.25674 4.65637 -4.35475 6381921
-1.24841 4.49395 -4.32493 6513242
-1.24841 4.33421 -4.32493 6249558
-1.24006 4.17099 -4.29501 6578525
-1.23587 4.00912 -4.28001 6576724
-1.23167 3.84698 -4.26499 6446415
-1.22326 3.68242 -4.23487 6380885
-1.21483 3.51732 -4.20465 6380625
-1.20636 3.35167 -4.17433 6446417
-1.19787 3.18547 -4.14391 6249045
-1.18935 3.01873 -4.11339 6249808
-1.18508 2.85429 -4.09809 6115669
-1.17222 2.68357 -4.05205 5788492
-1.1593 2.512 -4.00577 6117200
-1.14631 2.33957 -3.95926 5986115
-1.1289 2.16281 -3.89689 5788742
-1.12015 1.99211 -3.86555 5656387
-1.10255 1.81329 -3.80254 5590597
-1.08928 1.63719 -3.75501 5524550
-1.07148 1.45611 -3.69126 5459535
-1.05355 1.27379 -3.62707 5327424
-1.03551 1.09022 -3.56244 5524554
-1.01734 0.905403 -3.49738 5197134
-0.999052 0.719311 -3.43186 5524803
0.631081 5.77629 3.42049 2170909
-0.917141 5.77354 -4.47022 6182984
-0.923066 5.61545 -4.5004 6840913
-0.920106 5.4558 -4.48532 6578787
-0.914169 5.29508 -4.45509 6512223
-0.911192 5.13479 -4.43993 6775907
-0.908217 4.97423 -4.42475 6840927
-0.908217 4.81463 -4.42475 6775130
-0.905236 4.65368 -4.40954 6644063
-0.899257 4.49098 -4.37906 6775645
-0.899257 4.33099 -4.37906 6643547
-0.896257 4.16925 -4.36378 6643284
-0.890241 4.00535 -4.33314 6512212
-0.887232 3.84294 -4.31779 6380637
-0.87816 3.67594 -4.27157 6445904
-0.875126 3.51272 -4.25611 6184277
-0.869048 3.34679 -4.22512 6445904
-0.866003 3.1829 -4.20959 6380372
-0.859887 3.01601 -4.17844 6249047
-0.850684 2.8457 -4.13153 6182746
-0.841431 2.67453 -4.08438 6051407
-0.835243 2.50568 -4.05282 6117188
-0.822795 2.32962 -3.98938 6051144
-0.813402 2.15587 -3.94152 5919041
-0.807116 1.98487 -3.90948 5786949
-0.794477 1.80572 -3.84507 5524550
-0.781755 1.62535 -3.78022 5263175
-0.768949 1.44376 -3.71494 5459287
-0.759286 1.26523 -3.66568 5458503
-0.749571 1.08578 -3.61618 5327422
-0.73654 0.900781 -3.54977 5327945
-0.723423 0.714513 -3.48291 5195836
0.357172 5.7769 3.42837 2171171
-0.56358 5.77354 -4.52839 6183503
-0.568881 5.616 -4.5742 6578511
-0.567118 5.45649 -4.55895 6775633
-0.56358 5.2959 -4.52839 6577501
-0.561813 5.13574 -4.51308 6906970
-0.560034 4.97532 -4.49774 6840923
-0.55826 4.81463 -4.48237 6775130
-0.556473 4.65368 -4.46698 6840927
-0.55469 4.49247 -4.45156 6643544
-0.552903 4.33099 -4.43612 6644318
-0.551112 4.16925 -4.42065 6512980
-0.547526 4.00535 -4.38963 6447453
-0.545723 3.84294 -4.37409 6644054
-0.542121 3.6781 -4.34292 6512471
-0.540313 3.51502 -4.3273 6380637
-0.536685 3.34923 -4.29598 6445150
-0.533049 3.1829 -4.26456 6510675
-0.529403 3.01601 -4.23303 5987163
-0.523909 2.8457 -4.18554 6381139
-0.520228 2.67755 -4.15375 5919054
-0.516536 2.50884 -4.12185 6117454
-0.509115 2.33295 -4.05773 5787976
-0.50352 2.15934 -4.00936 5985603
-0.497898 1.98487 -3.96075 5524813
-0.492241 1.8095 -3.91189 5459524
-0.484659 1.62931 -3.84636 5525063
-0.477026 1.44788 -3.78038 5262663
-0.471266 1.26951 -3.7306 5197635
-0.465473 1.09022 -3.68057 5261883
-0.455755 0.900781 -3.59662 5196870
-0.447923 0.714513 -3.52893 5524800
0.0905313 5.77507 3.53986 1843233
-0.204852 5.77225 -4.51235 6380122
-0.205985 5.61377 -4.54324 6578525
-0.205424 5.45373 -4.52781 6774613
-0.204852 5.29344 -4.51235 6578787
-0.204286 5.13288 -4.49687 6775647
-0.203719 4.97206 -4.48136 6775134
-0.203149 4.81098 -4.46582 6775393
-0.202577 4.64963 -4.45026 6775132
-0.202004 4.48801 -4.43467 6840663
-0.201427 4.32613 -4.41906 6644063
-0.200858 4.16399 -4.40342 6447966
-0.200286 4.00157 -4.38776 6512211
-0.199127 3.83686 -4.35635 6511960
-0.198557 3.67377 -4.34061 6446680
-0.197393 3.50811 -4.30905 6250320
-0.196237 3.3419 -4.27739 6511710
-0.195072 3.17514 -4.24562 6446417
-0.193897 3.00782 -4.21374 6380876
-0.192729 2.83994 -4.18176 6184016
-0.191551 2.67151 -4.14967 6116692
-0.189775 2.49934 -4.10133 6116940
-0.187992 2.3263 -4.05276 6117191
-0.185602 2.1489 -3.9876 5920848
-0.184404 1.9776 -3.95486 5460033
-0.181989 1.79812 -3.88905 5590597
-0.179561 1.61742 -3.82279 5656654
-0.177725 1.43963 -3.7728 5459535
-0.175267 1.25664 -3.70575 5655872
-0.173406 1.07685 -3.65516 5262413
-0.170293 0.886866 -3.57026 5328206
-0.168411 0.704892 -3.51897 5328191
-0.186169 5.77568 3.50464 2170656
0.150462 5.77268 -4.52997 6249558
0.151756 5.61433 -4.56081 6775647
0.151104 5.45443 -4.5454 6643549
0.14981 5.29344 -4.51451 6776162
0.14981 5.13384 -4.51451 6840925
0.149168 4.97315 -4.49903 6841686
0.148517 4.8122 -4.48352 6776667
0.147866 4.65098 -4.46799 6906966
0.147215 4.4895 -4.45243 6644063
0.146564 4.32775 -4.43685 6775380
0.145905 4.16574 -4.42124 6644318
0.145254 4.00346 -4.40561 6512994
0.143937 3.83889 -4.37426 6774614
0.14262 3.67377 -4.34281 6577754
0.141962 3.51042 -4.32705 6446683
0.140638 3.34435 -4.29544 6446430
0.139307 3.17773 -4.26373 6380374
0.137976 3.01055 -4.23191 6446153
0.136639 2.84282 -4.19999 6249047
0.134622 2.67151 -4.15191 6182996
0.133272 2.50251 -4.11971 6117463
0.131245 2.32962 -4.07123 6182733
0.129198 2.15587 -4.0225 5722961
0.127147 1.98123 -3.97352 5590856
0.125084 1.80572 -3.9243 5656900
0.122317 1.62535 -3.85827 5590856
0.119536 1.44376 -3.7918 5461069
0.11673 1.26093 -3.72488 5525576
0.114614 1.08132 -3.67438 5590858
0.111779 0.89615 -3.60666 5525068
0.108922 0.709707 -3.53846 5065289
-0.46434 5.77507 3.51044 2171179
0.505411 5.77268 -4.5042 6380625
