# .PCD v.5 - Point Cloud Data file format
FIELDS x y z rgba
SIZE 4 4 4 4
TYPE F F F U
WIDTH 1735
HEIGHT 1
POINTS 1735
DATA ascii
-0.21151 -0.087819 0.069326 0
-0.17673 -0.086193 0.078037 0
-0.15153 -0.085197 0.091759 0
-0.0045978 -0.077691 0.10258 0
-0.28785 -0.088028 -0.133 0
-0.30677 -0.090295 -0.07814 0
-0.29774 -0.090505 -0.049806 0
-0.30511 -0.088538 -0.022099 0
-0.20613 -0.087717 0.030213 0
-0.18492 -0.087955 0.085979 0
-0.14073 -0.085889 0.094149 0
-0.077105 -0.082786 0.10044 0
-0.29245 -0.090148 -0.05945 0
-0.28277 -0.08706 -0.023635 0
-0.28085 -0.088035 -0.13951 0
-0.27607 -0.08752 -0.1173 0
0.20994 -0.062528 -0.23408 0
-0.20096 -0.089372 0.070599 0
-0.16613 -0.087859 0.079941 0
-0.2877 -0.087158 -0.14575 0
-0.29039 -0.091998 -0.1044 0
-0.28788 -0.092634 -0.069008 0
-0.29305 -0.093445 -0.04203 0
-0.28665 -0.088285 -0.02908 0
0.21722 -0.066235 -0.2173 0
0.20541 -0.074148 -0.17189 0
-0.21205 -0.091531 0.043441 0
-0.19815 -0.091667 0.079976 0
-0.16349 -0.090283 0.089922 0
-0.10959 -0.087952 0.096979 0
-0.026338 -0.084204 0.10097 0
-0.2926 -0.091857 -0.12233 0
-0.31041 -0.093533 -0.081564 0
-0.29873 -0.093311 -0.066773 0
-0.28791 -0.092807 -0.05168 0
-0.29273 -0.089551 -0.017165 0
0.22195 -0.065561 -0.25137 0
0.22134 -0.066483 -0.20902 0
-0.14286 -0.089465 0.089259 0
-0.098554 -0.087689 0.099821 0
-0.0054656 -0.083458 0.10286 0
-0.2938 -0.093586 -0.076588 0
-0.28388 -0.088142 -0.039346 0
0.22527 -0.067089 -0.24293 0
0.21636 -0.068373 -0.19633 0
-0.17616 -0.091613 0.083201 0
-0.06812 -0.087103 0.098324 0
-0.28369 -0.089919 -0.12575 0
-0.28769 -0.092478 -0.082374 0
0.20741 -0.072815 -0.19188 0
-0.20866 -0.09448 0.052669 0
-0.20172 -0.094536 0.07094 0
-0.16688 -0.093274 0.080277 0
-0.13208 -0.092055 0.091828 0
0.22014 -0.072556 -0.18797 0
-0.19595 -0.093705 0.031235 0
-0.21619 -0.095087 0.060854 0
-0.19067 -0.094252 0.072252 0
-0.17488 -0.093901 0.088167 0
-0.12101 -0.091808 0.094413 0
-0.047513 -0.08889 0.09963 0
0.22613 -0.072577 -0.24289 0
0.21615 -0.07382 -0.1962 0
-0.18915 -0.094439 0.024579 0
-0.078119 -0.090942 0.10088 0
0.21709 -0.076946 -0.2381 0
-0.17676 -0.096648 0.083542 0
-0.12283 -0.094766 0.089313 0
0.2214 -0.076927 -0.22982 0
0.21989 -0.07767 -0.1878 0
-0.21466 -0.097316 0.039343 0
-0.20045 -0.097391 0.075757 0
-0.16569 -0.096275 0.085396 0
0.22578 -0.078013 -0.24268 0
0.22479 -0.078715 -0.20034 0
-0.068854 -0.093842 0.09874 0
0.22051 -0.080846 -0.20853 0
-0.22054 -0.099596 0.052373 0
-0.18824 -0.098948 0.082096 0
-0.14395 -0.09757 0.089866 0
-0.099592 -0.096232 0.10052 0
0.0032736 -0.092774 0.10131 0
-0.20274 -0.10029 0.071502 0
-0.13309 -0.098343 0.092381 0
-0.21382 -0.10077 0.070398 0
-0.0067424 -0.09462 0.10357 0
0.21598 -0.084503 -0.21659 0
-0.19026 -0.1009 0.077615 0
-0.15547 -0.099967 0.087887 0
-0.11111 -0.098736 0.09782 0
-0.027809 -0.096229 0.10179 0
0.20986 -0.08735 -0.18298 0
-0.20661 -0.10207 0.035996 0
-0.21768 -0.10271 0.061666 0
-0.19215 -0.10211 0.07306 0
-0.16682 -0.10154 0.086 0
-0.12247 -0.10037 0.09521 0
-0.048946 -0.098315 0.10041 0
0.23882 -0.082293 -0.2507 0
0.21473 -0.088992 -0.19547 0
-0.19969 -0.10284 0.027462 0
-0.21287 -0.10375 0.075209 0
-0.17813 -0.10291 0.084209 0
-0.079731 -0.10044 0.10169 0
-0.19879 -0.10331 0.081177 0
-0.15451 -0.10252 0.093109 0
-0.1013 -0.10129 0.099764 0
0.22371 -0.089099 -0.22045 0
-0.16575 -0.10358 0.090968 0
0.22314 -0.093974 -0.1999 0
-0.20411 -0.10625 0.071777 0
-0.13444 -0.10488 0.092649 0
-0.070659 -0.1035 0.099253 0
0.21802 -0.094868 -0.18729 0
-0.049891 -0.10348 0.10041 0
-0.21919 -0.10958 0.061828 0
-0.19366 -0.10921 0.073219 0
-0.16832 -0.10887 0.086157 0
-0.12396 -0.10816 0.095362 0
-0.21174 -0.11046 0.053924 0
-0.17945 -0.11014 0.084581 0
-0.071324 -0.10852 0.099666 0
-0.18272 -0.11177 0.075385 0
-0.14781 -0.11135 0.085985 0
-0.10335 -0.1108 0.096248 0
-0.019929 -0.10971 0.10054 0
-0.21003 -0.11206 0.058884 0
-0.20325 -0.11205 0.077215 0
-0.11446 -0.11094 0.093411 0
-0.04083 -0.10998 0.098944 0
-0.13527 -0.11234 0.093753 0
-0.21377 -0.11381 0.05026 0
-0.18122 -0.11353 0.080634 0
-0.1464 -0.11319 0.091538 0
-0.092335 -0.11263 0.099718 0
0.00089342 -0.11165 0.10295 0
-0.11331 -0.11421 0.098027 0
-0.030001 -0.11329 0.10334 0
-0.0829 -0.11392 0.097383 0
-0.21819 -0.11586 0.067656 0
-0.19275 -0.11568 0.07927 0
-0.15795 -0.11542 0.089537 0
-0.20744 -0.11805 0.042284 0
-0.10446 -0.1176 0.097112 0
-0.22043 -0.11791 0.063366 0
-0.2134 -0.11786 0.080191 0
-0.16954 -0.11768 0.087695 0
-0.11554 -0.11745 0.094259 0
-0.051627 -0.11718 0.10209 0
-0.031093 -0.11882 0.10373 0
-0.2102 -0.1211 0.064519 0
-0.18465 -0.12109 0.076461 0
-0.14974 -0.12109 0.08706 0
-0.021839 -0.12118 0.10162 0
-0.21248 -0.12229 0.03339 0
-0.21406 -0.1222 0.055444 0
-0.17225 -0.12221 0.083043 0
-0.13743 -0.12226 0.094584 0
-0.07363 -0.12241 0.10119 0
-0.2183 -0.12418 0.04646 0
-0.19497 -0.12415 0.079772 0
-0.16952 -0.12423 0.089803 0
-0.10612 -0.12458 0.09741 0
-0.03245 -0.12499 0.10392 0
-0.1839 -0.12422 0.081346 0
-0.14908 -0.12437 0.09225 0
-0.08532 -0.12472 0.097958 0
-0.011547 -0.12512 0.10579 0
-0.20425 -0.12567 0.029449 0
-0.20803 -0.12537 0.073811 0
-0.12872 -0.1259 0.091955 0
-0.064841 -0.12637 0.098894 0
-0.21192 -0.12727 0.064816 0
-0.19429 -0.12747 0.084715 0
-0.095914 -0.12846 0.10066 0
-0.002686 -0.12948 0.10389 0
-0.17435 -0.13023 0.083589 0
-0.13953 -0.13065 0.095131 0
-0.075739 -0.13154 0.10174 0
-0.20341 -0.13026 0.034539 0
-0.21436 -0.12985 0.060534 0
-0.19814 -0.12995 0.075559 0
-0.17279 -0.13021 0.088498 0
-0.12845 -0.1308 0.097546 0
-0.045158 -0.13202 0.1006 0
-0.20651 -0.13172 0.0837 0
-0.16224 -0.13244 0.090746 0
-0.10821 -0.13334 0.098121 0
-0.015048 -0.13502 0.10021 0
-0.2064 -0.13431 0.030546 0
-0.21712 -0.13375 0.056634 0
-0.21823 -0.13346 0.077038 0
-0.18483 -0.13404 0.087293 0
-0.13088 -0.13511 0.093058 0
-0.11976 -0.13531 0.095716 0
-0.036409 -0.13703 0.098956 0
-0.21374 -0.13447 0.065912 0
-0.19765 -0.13462 0.081079 0
-0.025417 -0.13816 0.10304 0
-0.21626 -0.13723 0.03528 0
-0.20854 -0.13714 0.053619 0
-0.17603 -0.13749 0.084937 0
-0.14121 -0.13821 0.096483 0
-0.077437 -0.13975 0.1031 0
-0.2125 -0.13799 0.044595 0
-0.16358 -0.13854 0.092057 0
-0.10955 -0.13988 0.09944 0
-0.016408 -0.14236 0.10154 0
-0.21075 -0.13898 0.049361 0
-0.20352 -0.13886 0.067896 0
-0.18745 -0.13905 0.083533 0
-0.15265 -0.13986 0.094444 0
-0.098596 -0.14127 0.10264 0
0.0043662 -0.1442 0.10376 0
-0.20724 -0.14025 0.032365 0
-0.13206 -0.14141 0.094259 0
-0.18449 -0.1403 0.092524 0
-0.12096 -0.14183 0.096938 0
-0.047352 -0.14396 0.10249 0
-0.18929 -0.14076 0.079001 0
-0.15439 -0.14165 0.08961 0
-0.026553 -0.14538 0.10421 0
-0.21943 -0.14197 0.053947 0
-0.21338 -0.14205 0.071943 0
0.013601 -0.14924 0.10225 0
-0.2026 -0.14363 0.073315 0
-0.17716 -0.14428 0.08604 0
-0.14236 -0.14529 0.097594 0
-0.078599 -0.14747 0.10422 0
-0.19958 -0.14658 0.02906 0
-0.20099 -0.14609 0.051216 0
-0.20496 -0.14568 0.068867 0
-0.17963 -0.1464 0.081775 0
-0.1541 -0.14708 0.095424 0
-0.090384 -0.14947 0.10116 0
-0.006903 -0.15263 0.10691 0
-0.20758 -0.14854 0.037455 0
-0.21171 -0.14726 0.081767 0
-0.17696 -0.14852 0.091416 0
-0.123 -0.15067 0.09801 0
-0.059143 -0.15322 0.10588 0
-0.17884 -0.14957 0.086618 0
-0.15335 -0.15068 0.099604 0
-0.070605 -0.15398 0.10243 0
-0.10124 -0.15304 0.10404 0
0.0016598 -0.15764 0.1052 0
-0.1919 -0.15039 0.080162 0
-0.16659 -0.15121 0.093665 0
-0.1126 -0.15352 0.10107 0
-0.029258 -0.15727 0.10542 0
-0.17656 -0.15132 0.095551 0
-0.21083 -0.1536 0.060004 0
-0.20392 -0.15342 0.078661 0
-0.1786 -0.15438 0.091613 0
-0.12466 -0.15701 0.098215 0
-0.05112 -0.1607 0.1038 0
-0.18966 -0.15385 0.089754 0
-0.14538 -0.15593 0.098267 0
-0.071967 -0.15965 0.10254 0
-0.19535 -0.15708 0.075512 0
-0.16993 -0.15812 0.088798 0
-0.20813 -0.15752 0.042477 0
-0.20319 -0.15653 0.083527 0
-0.16843 -0.15821 0.09382 0
-0.12387 -0.16113 0.10151 0
-0.021449 -0.16637 0.1034 0
-0.21261 -0.15979 0.060565 0
-0.2057 -0.15959 0.07922 0
-0.18039 -0.16074 0.092178 0
-0.062686 -0.1676 0.10669 0
-0.041843 -0.16885 0.10823 0
-0.05321 -0.16921 0.1045 0
-0.2096 -0.16262 0.043216 0
-0.21139 -0.16172 0.065548 0
-0.1952 -0.16223 0.081052 0
-0.16991 -0.16341 0.094563 0
-0.11597 -0.16669 0.10199 0
-0.032717 -0.17199 0.10638 0
-0.18434 -0.1637 0.082907 0
-0.15906 -0.16489 0.096973 0
-0.1051 -0.16819 0.10521 0
-0.01207 -0.17428 0.10855 0
-0.20072 -0.16452 0.039618 0
-0.20496 -0.1626 0.084526 0
-0.16068 -0.16531 0.09195 0
-0.18363 -0.16678 0.088537 0
-0.13929 -0.16961 0.09741 0
-0.085241 -0.17311 0.1068 0
-0.18594 -0.17015 0.084575 0
-0.15111 -0.17234 0.095861 0
-0.097091 -0.17611 0.10446 0
-0.013781 -0.18224 0.1103 0
-0.20223 -0.17073 0.041211 0
-0.19702 -0.16937 0.082902 0
-0.16219 -0.17159 0.09355 0
-0.1082 -0.17539 0.10134 0
-0.034648 -0.18073 0.10831 0
-0.20807 -0.16948 0.081811 0
-0.17327 -0.17176 0.091827 0
-0.12893 -0.1748 0.10144 0
-0.065196 -0.17943 0.10938 0
-0.19538 -0.17164 0.088754 0
-0.0040726 -0.18605 0.1093 0
-0.21139 -0.17228 0.046125 0
-0.17172 -0.17314 0.097485 0
-0.11783 -0.17712 0.10496 0
-0.044386 -0.18271 0.11161 0
-0.10675 -0.17851 0.10826 0
-0.1987 -0.17374 0.07999 0
-0.18282 -0.17429 0.096252 0
-0.11938 -0.17938 0.10031 0
-0.055594 -0.18429 0.10862 0
-0.18438 -0.1744 0.091345 0
-0.14008 -0.17766 0.10025 0
-0.0764 -0.18262 0.10733 0
0.026473 -0.19103 0.11057 0
-0.1976 -0.17817 0.089821 0
-0.1629 -0.18076 0.1008 0
-0.10903 -0.18521 0.1091 0
-0.01617 -0.19345 0.11255 0
-0.20444 -0.1799 0.043346 0
-0.19921 -0.17827 0.085024 0
-0.17395 -0.17987 0.098561 0
-0.11049 -0.18537 0.10353 0
-0.046723 -0.19067 0.11274 0
-0.2071 -0.1813 0.038689 0
-0.19929 -0.18105 0.057722 0
-0.20152 -0.17969 0.080306 0
-0.18564 -0.18033 0.09657 0
-0.12225 -0.18599 0.10065 0
-0.058508 -0.19147 0.10897 0
-0.21318 -0.18203 0.052055 0
-0.20581 -0.18175 0.070909 0
-0.15487 -0.18519 0.098207 0
-0.10094 -0.1899 0.10685 0
-0.0080373 -0.19858 0.11066 0
-0.19027 -0.18396 0.087027 0
-0.1112 -0.19052 0.10943 0
-0.1751 -0.18596 0.10106 0
-0.019029 -0.20124 0.11306 0
-0.20997 -0.1877 0.066715 0
-0.20309 -0.18735 0.085753 0
-0.12409 -0.19446 0.10682 0
-0.050798 -0.20178 0.11355 0
-0.19225 -0.18912 0.087532 0
-0.16703 -0.191 0.10163 0
-0.10361 -0.1974 0.10753 0
-0.010803 -0.20704 0.11138 0
-0.20466 -0.18981 0.053709 0
-0.19067 -0.18909 0.092434 0
-0.15601 -0.19211 0.10406 0
-0.082903 -0.19964 0.1085 0
0.010024 -0.20922 0.11384 0
-0.21622 -0.1905 0.048478 0
-0.19443 -0.19108 0.082896 0
-0.20226 -0.19322 0.037761 0
-0.20576 -0.19087 0.081423 0
-0.18042 -0.19289 0.094754 0
-0.12662 -0.19844 0.10182 0
-0.062984 -0.20499 0.11019 0
-0.053691 -0.20762 0.1081 0
-0.21654 -0.19398 0.053668 0
-0.18442 -0.19586 0.085294 0
-0.14959 -0.19915 0.096968 0
-0.10527 -0.20355 0.10843 0
-0.012559 -0.21399 0.11233 0
-0.21113 -0.19667 0.042751 0
-0.17215 -0.19838 0.092729 0
-0.13743 -0.20166 0.10535 0
-0.20908 -0.19851 0.050683 0
-0.19475 -0.19773 0.089281 0
-0.023255 -0.21665 0.11537 0
-0.20714 -0.19843 0.055453 0
-0.1837 -0.19894 0.091158 0
-0.13944 -0.20366 0.10047 0
-0.085529 -0.2095 0.11033 0
0.01697 -0.22159 0.11375 0
-0.21124 -0.19805 0.073635 0
-0.1604 -0.20246 0.10099 0
-0.1066 -0.20845 0.10971 0
-0.01396 -0.2195 0.11366 0
-0.19697 -0.20272 0.057401 0
-0.19904 -0.20092 0.080287 0
-0.17361 -0.20317 0.093968 0
-0.12936 -0.20802 0.10401 0
-0.056173 -0.21673 0.11019 0
-0.20445 -0.2015 0.065847 0
-0.20683 -0.19968 0.088385 0
-0.17214 -0.2033 0.099112 0
-0.12797 -0.20812 0.10954 0
-0.054843 -0.21682 0.11636 0
-0.075876 -0.21526 0.11495 0
-0.21303 -0.20301 0.074762 0
-0.1875 -0.20542 0.087674 0
-0.15272 -0.20912 0.09938 0
-0.098879 -0.21548 0.10846 0
-0.025603 -0.22441 0.11697 0
-0.16373 -0.20772 0.096926 0
-0.046312 -0.2217 0.11489 0
-0.19866 -0.20743 0.058437 0
-0.20071 -0.20552 0.081317 0
-0.17531 -0.2079 0.095007 0
-0.14064 -0.21158 0.10766 0
-0.067604 -0.2208 0.11353 0
-0.20278 -0.20647 0.076632 0
-0.17727 -0.2089 0.090101 0
-0.1425 -0.21265 0.10245 0
-0.079046 -0.22056 0.11002 0
0.0039797 -0.23107 0.11787 0
-0.18715 -0.20852 0.093316 0
-0.15248 -0.21232 0.10534 0
-0.089135 -0.22035 0.11258 0
0.013177 -0.23391 0.11611 0
-0.20653 -0.21127 0.072721 0
-0.19969 -0.21077 0.092138 0
-0.16505 -0.21478 0.10353 0
-0.11137 -0.22167 0.11232 0
-0.018946 -0.23437 0.11638 0
-0.20691 -0.21332 0.044981 0
-0.21069 -0.20935 0.090426 0
-0.16661 -0.21495 0.098353 0
-0.13198 -0.21882 0.11166 0
-0.049344 -0.23009 0.11639 0
-0.20136 -0.21392 0.059701 0
-0.17801 -0.21445 0.096274 0
-0.13384 -0.21996 0.10636 0
-0.070436 -0.22832 0.11487 0
-0.10306 -0.22677 0.11083 0
-0.029931 -0.23675 0.11941 0
-0.19908 -0.21833 0.042105 0
-0.20038 -0.21631 0.065346 0
-0.12373 -0.22398 0.11012 0
-0.19187 -0.21649 0.090252 0
-0.15716 -0.22067 0.10199 0
-0.093858 -0.22945 0.10874 0
-0.02066 -0.23951 0.11767 0
-0.20348 -0.21977 0.061516 0
-0.17071 -0.22196 0.095187 0
-0.13602 -0.22614 0.10821 0
-0.072689 -0.235 0.11676 0
-0.20541 -0.21988 0.05665 0
-0.20723 -0.21773 0.079528 0
-0.18176 -0.22048 0.093024 0
-0.14705 -0.2247 0.10541 0
-0.093338 -0.23199 0.11539 0
0.0087516 -0.24711 0.11905 0
-0.063371 -0.23755 0.11478 0
-0.19207 -0.22543 0.040687 0
-0.20212 -0.22193 0.066784 0
-0.19498 -0.22139 0.086467 0
-0.16965 -0.22412 0.10074 0
-0.12554 -0.23004 0.1116 0
-0.052605 -0.24072 0.11892 0
-0.18083 -0.22355 0.09858 0
-0.20457 -0.22113 0.08977 0
-0.16047 -0.22737 0.098088 0
-0.043291 -0.24423 0.11696 0
-0.21573 -0.22205 0.056087 0
-0.20989 -0.22226 0.075308 0
-0.19368 -0.22343 0.091657 0
-0.15902 -0.22793 0.10343 0
-0.10538 -0.23566 0.11263 0
-0.022745 -0.24823 0.11924 0
-0.20855 -0.22528 0.052562 0
-0.20212 -0.22864 0.044259 0
-0.12687 -0.23489 0.11233 0
-0.054016 -0.24609 0.1197 0
-0.15083 -0.23291 0.10136 0
-0.09713 -0.24086 0.11092 0
-0.20015 -0.2271 0.07751 0
-0.18398 -0.22827 0.094333 0
-0.131 -0.23617 0.10345 0
-0.08615 -0.24254 0.11448 0
0.0061718 -0.25715 0.12056 0
-0.20804 -0.22598 0.08585 0
-0.19196 -0.22708 0.10173 0
-0.14819 -0.23352 0.11232 0
-0.06591 -0.24679 0.11616 0
-0.20572 -0.22798 0.096114 0
-0.16177 -0.23462 0.10486 0
-0.1082 -0.24284 0.1141 0
-0.025701 -0.25619 0.12078 0
-0.19814 -0.23017 0.08814 0
-0.18226 -0.2313 0.10524 0
-0.12882 -0.23961 0.11335 0
-0.046445 -0.25309 0.11862 0
-0.19831 -0.23355 0.060191 0
-0.14014 -0.23885 0.11051 0
-0.05784 -0.25251 0.11473 0
-0.21425 -0.2342 0.049622 0
-0.13926 -0.24106 0.11577 0
-0.057305 -0.25483 0.12139 0
-0.10997 -0.24762 0.11499 0
-0.017954 -0.2634 0.11968 0
-0.20032 -0.23872 0.061201 0
-0.20215 -0.23617 0.084353 0
-0.19556 -0.2356 0.10319 0
-0.13272 -0.24623 0.109 0
-0.060003 -0.2586 0.11582 0
-0.2064 -0.23922 0.046445 0
-0.19846 -0.23874 0.066193 0
-0.20049 -0.23615 0.089324 0
-0.17522 -0.2393 0.10364 0
-0.13126 -0.24613 0.11458 0
-0.21179 -0.2351 0.087748 0
-0.14259 -0.24527 0.11174 0
-0.069978 -0.25776 0.11823 0
-0.18743 -0.24048 0.10195 0
-0.21263 -0.24006 0.060524 0
-0.2069 -0.23793 0.10092 0
-0.14512 -0.24798 0.10677 0
-0.09158 -0.25682 0.11722 0
0.00043809 -0.27317 0.12346 0
-0.21472 -0.24112 0.056062 0
-0.20062 -0.24025 0.095164 0
-0.16608 -0.24551 0.10701 0
-0.11266 -0.25454 0.11633 0
-0.030394 -0.2692 0.12312 0
-0.19954 -0.24648 0.043733 0
-0.20062 -0.24391 0.067249 0
-0.20263 -0.2412 0.09037 0
-0.17739 -0.2445 0.1047 0
-0.13349 -0.25164 0.11567 0
-0.051364 -0.26652 0.12107 0
-0.21206 -0.24289 0.066002 0
-0.20474 -0.24228 0.085614 0
-0.13541 -0.2529 0.11031 0
-0.062822 -0.26595 0.1172 0
-0.18999 -0.24652 0.10304 0
-0.073711 -0.26737 0.11989 0
-0.20316 -0.24986 0.068205 0
-0.19588 -0.24918 0.088204 0
-0.17993 -0.2505 0.10566 0
-0.12664 -0.26014 0.11422 0
-0.044576 -0.27575 0.12003 0
-0.19988 -0.25211 0.049643 0
-0.20114 -0.24939 0.073133 0
-0.20332 -0.24653 0.096219 0
-0.16884 -0.25208 0.10809 0
-0.10603 -0.26373 0.1151 0
-0.033403 -0.27709 0.12433 0
-0.16109 -0.25798 0.10618 0
-0.025619 -0.28368 0.12317 0
-0.19689 -0.25848 0.066205 0
-0.19872 -0.2555 0.089626 0
-0.17345 -0.25914 0.10432 0
-0.12016 -0.26924 0.11327 0
-0.04769 -0.28341 0.1216 0
-0.20295 -0.25903 0.051163 0
-0.20633 -0.25317 0.097708 0
-0.17192 -0.25902 0.10961 0
-0.10924 -0.2713 0.11668 0
-0.21045 -0.25777 0.060056 0
-0.21234 -0.25249 0.10296 0
-0.15209 -0.26446 0.10999 0
-0.089297 -0.27674 0.1183 0
0.012037 -0.29763 0.12266 0
-0.1307 -0.27009 0.1166 0
-0.18548 -0.26007 0.10282 0
-0.15109 -0.2659 0.11601 0
-0.069402 -0.28279 0.12056 0
-0.16556 -0.26552 0.10283 0
-0.049283 -0.28819 0.12296 0
-0.21732 -0.25831 0.065791 0
-0.20653 -0.25821 0.10441 0
-0.10027 -0.27927 0.1221 0
0.010188 -0.30331 0.12307 0
-0.19687 -0.26379 0.073009 0
-0.16441 -0.2667 0.10866 0
-0.10174 -0.27944 0.11613 0
-0.029288 -0.29405 0.12586 0
-0.19116 -0.26962 0.065199 0
-0.20203 -0.26401 0.092003 0
-0.17681 -0.26788 0.10673 0
-0.12366 -0.27863 0.11576 0
-0.060888 -0.29136 0.12628 0
-0.18773 -0.26573 0.10432 0
-0.14401 -0.27419 0.11504 0
-0.06239 -0.29177 0.12001 0
-0.21038 -0.26653 0.063569 0
-0.15555 -0.27338 0.1123 0
-0.10238 -0.28405 0.12295 0
0.0080118 -0.30867 0.12475 0
-0.20161 -0.26999 0.069072 0
-0.1942 -0.26921 0.089389 0
-0.13448 -0.27925 0.11866 0
-0.19984 -0.27012 0.074181 0
-0.20182 -0.26683 0.097549 0
-0.16741 -0.27318 0.10985 0
-0.10488 -0.28652 0.11738 0
-0.022822 -0.3042 0.12406 0
-0.20078 -0.26787 0.10282 0
-0.094591 -0.29005 0.12129 0
-0.17071 -0.27694 0.10513 0
-0.12696 -0.2857 0.11695 0
-0.054853 -0.30149 0.12547 0
-0.11603 -0.28783 0.12036 0
-0.19638 -0.27374 0.090238 0
-0.21535 -0.27337 0.06863 0
-0.19874 -0.2752 0.08541 0
-0.19184 -0.27426 0.1059 0
-0.14824 -0.28324 0.11668 0
-0.076307 -0.2994 0.12392 0
-0.18147 -0.27768 0.10858 0
-0.2014 -0.27719 0.080717 0
-0.20354 -0.27371 0.10404 0
-0.15998 -0.28289 0.11412 0
-0.097565 -0.2968 0.12263 0
0.0033328 -0.31972 0.12433 0
-0.14008 -0.28845 0.11477 0
-0.068127 -0.30485 0.12238 0
-0.19869 -0.27873 0.091367 0
-0.17344 -0.28294 0.10646 0
-0.12977 -0.29205 0.11833 0
-0.058115 -0.30843 0.12585 0
-0.18434 -0.28061 0.10395 0
-0.13921 -0.2902 0.12035 0
-0.20925 -0.27907 0.095244 0
-0.18413 -0.28337 0.11002 0
-0.049954 -0.31469 0.12563 0
-0.20562 -0.28238 0.076942 0
-0.20753 -0.27883 0.10028 0
-0.16398 -0.28839 0.11001 0
-0.12035 -0.29758 0.12262 0
-0.038655 -0.31834 0.12818 0
-0.2029 -0.28406 0.087678 0
-0.18677 -0.28576 0.10537 0
-0.15247 -0.29261 0.1174 0
-0.071413 -0.31235 0.12425 0
-0.21643 -0.28313 0.076418 0
-0.17626 -0.28895 0.10811 0
-0.13268 -0.2984 0.12002 0
-0.20825 -0.28756 0.078006 0
-0.21013 -0.2839 0.10133 0
-0.16666 -0.29377 0.1111 0
-0.11377 -0.306 0.12146 0
-0.023061 -0.32854 0.12758 0
-0.21246 -0.28856 0.067993 0
-0.19796 -0.28675 0.10871 0
-0.13595 -0.30199 0.11468 0
-0.20101 -0.29356 0.075075 0
-0.20276 -0.28983 0.098716 0
-0.15923 -0.29989 0.10884 0
-0.12496 -0.30676 0.12389 0
-0.034263 -0.33029 0.12902 0
-0.20065 -0.29179 0.10949 0
-0.13876 -0.30753 0.11551 0
-0.076508 -0.32277 0.12577 0
-0.20294 -0.29334 0.10463 0
-0.15955 -0.30357 0.11517 0
-0.097448 -0.31907 0.12421 0
-0.21443 -0.29589 0.07436 0
-0.18185 -0.2997 0.10981 0
-0.12916 -0.31268 0.11945 0
-0.057573 -0.33087 0.1286 0
-0.2129 -0.29647 0.07959 0
-0.20562 -0.29554 0.09995 0
-0.16219 -0.30597 0.11012 0
-0.10939 -0.31888 0.1209 0
-0.046915 -0.33441 0.13192 0
-0.17358 -0.3044 0.10755 0
-0.20457 -0.30064 0.076642 0
-0.17207 -0.30434 0.11304 0
-0.037525 -0.33749 0.12956 0
-0.12147 -0.31869 0.11786 0
-0.068571 -0.33141 0.13102 0
-0.18927 -0.31038 0.060613 0
-0.20432 -0.30333 0.082608 0
-0.2062 -0.29933 0.10619 0
-0.16291 -0.30993 0.11678 0
-0.091652 -0.32892 0.12373 0
-0.20814 -0.3 0.10118 0
-0.11207 -0.32393 0.12222 0
-0.013321 -0.3473 0.12342 0
-0.2153 -0.30383 0.086783 0
-0.19909 -0.30584 0.10436 0
-0.2033 -0.31057 0.064815 0
-0.21346 -0.3036 0.091865 0
-0.19739 -0.30555 0.10958 0
-0.14491 -0.31926 0.1185 0
-0.082922 -0.33548 0.12889 0
-0.21773 -0.30484 0.077463 0
-0.212 -0.30402 0.09716 0
-0.17778 -0.31199 0.10968 0
-0.12518 -0.32562 0.11975 0
-0.071929 -0.33747 0.13068 0
-0.20542 -0.3086 0.089355 0
-0.20617 -0.3044 0.10973 0
-0.13671 -0.32439 0.11668 0
-0.20396 -0.30907 0.094747 0
-0.18793 -0.31096 0.11294 0
-0.13547 -0.32477 0.12269 0
-0.21856 -0.30682 0.082535 0
-0.2113 -0.30585 0.10289 0
-0.1772 -0.31383 0.11573 0
-0.11546 -0.33058 0.12404 0
-0.14514 -0.32268 0.12524 0
-0.18044 -0.31734 0.11125 0
-0.20961 -0.31367 0.085688 0
-0.20948 -0.309 0.10645 0
-0.15915 -0.32377 0.11744 0
-0.10682 -0.33767 0.12816 0
-0.19625 -0.32207 0.069426 0
-0.12887 -0.33401 0.12237 0
-0.20667 -0.31908 0.0684 0
-0.20828 -0.31504 0.091509 0
-0.18304 -0.32023 0.10685 0
-0.14892 -0.32824 0.12133 0
-0.097107 -0.34076 0.12845 0
-0.20208 -0.32058 0.083872 0
-0.20376 -0.31623 0.10773 0
-0.16976 -0.32445 0.12127 0
-0.17152 -0.325 0.11577 0
-0.11904 -0.33909 0.12646 0
-0.1844 -0.3253 0.1131 0
-0.1321 -0.33995 0.12332 0
-0.19527 -0.32254 0.11043 0
-0.14302 -0.33732 0.11985 0
-0.20634 -0.32718 0.084661 0
-0.20798 -0.32271 0.10851 0
-0.16496 -0.33455 0.11962 0
-0.20979 -0.32316 0.10338 0
-0.17579 -0.33178 0.11665 0
-0.12135 -0.34281 0.12325 0
-0.19423 -0.33665 0.071811 0
-0.17873 -0.33495 0.11273 0
-0.14426 -0.34123 0.12519 0
-0.20578 -0.32995 0.091612 0
-0.15538 -0.34008 0.1238 0
-0.18914 -0.33436 0.11659 0
-0.10152 -0.34939 0.11821 0
-0.16942 -0.34092 0.11699 0
-0.21454 -0.32984 0.091798 0
-0.20205 -0.33245 0.10877 0
-0.1682 -0.34081 0.12195 0
-0.20313 -0.33839 0.079548 0
-0.19787 -0.33854 0.095744 0
-0.18171 -0.34062 0.11464 0
-0.19252 -0.33767 0.11187 0
-0.19471 -0.33876 0.10666 0
-0.17287 -0.34542 0.1177 0
-0.20881 -0.33867 0.099427 0
-0.21211 -0.33458 0.10423 0
-0.18455 -0.34516 0.11525 0
-0.20098 -0.34558 0.10292 0
-0.19842 -0.34494 0.10773 0
-0.18601 -0.34933 0.096746 0
-0.023189 0.23486 0.17795 0
-0.017622 0.23411 0.17764 0
-0.036666 0.23196 0.18398 0
-0.011839 0.23359 0.17733 0
-0.054844 0.22984 0.17931 0
-0.03039 0.22764 0.18815 0
-0.0040492 0.2343 0.17747 0
-0.11704 0.22795 0.16502 0
-0.084785 0.22375 0.18192 0
-0.060968 0.22715 0.18239 0
-0.036065 0.22447 0.18771 0
-0.011356 0.23071 0.18431 0
-0.09164 0.2221 0.18222 0
-0.066998 0.2247 0.18183 0
-0.042318 0.2269 0.18221 0
-0.017629 0.22872 0.18335 0
0.0070387 0.23013 0.18527 0
-0.098586 0.2248 0.17326 0
-0.07308 0.22301 0.18156 0
-0.048405 0.22531 0.18175 0
-0.023715 0.22722 0.1827 0
0.0006984 0.22271 0.18809 0
-0.10484 0.2235 0.17348 0
-0.079209 0.22196 0.18153 0
-0.054544 0.22436 0.18152 0
-0.029855 0.22637 0.18227 0
-0.0051722 0.22798 0.1838 0
0.019473 0.22919 0.1861 0
-0.13792 0.22442 0.15967 0
-0.11095 0.22205 0.17351 0
-0.035963 0.22508 0.18179 0
0.013382 0.2281 0.18522 0
-0.137 0.22059 0.1657 0
-0.10971 0.2151 0.18171 0
0.039248 0.22849 0.17916 0
-0.14322 0.21939 0.16618 0
-0.11697 0.21872 0.17317 0
-0.091265 0.21728 0.1809 0
-0.06662 0.21985 0.18049 0
-0.041938 0.22204 0.18085 0
-0.017247 0.22384 0.18199 0
0.0074216 0.22524 0.1839 0
0.031642 0.22578 0.18617 0
-0.15001 0.21979 0.15657 0
-0.1202 0.21181 0.18042 0
-0.097351 0.21571 0.18088 0
0.0013254 0.22405 0.1831 0
0.025958 0.22516 0.18558 0
-0.1493 0.2155 0.16598 0
-0.12294 0.21465 0.17268 0
-0.072537 0.21599 0.17961 0
-0.04786 0.21826 0.17977 0
-0.023167 0.22014 0.1807 0
0.05226 0.22571 0.17892 0
-0.15517 0.21355 0.16634 0
-0.13044 0.21794 0.16418 0
-0.1033 0.2124 0.18043 0
-0.078684 0.21515 0.17963 0
-0.054015 0.21751 0.17959 0
-0.029323 0.21949 0.18033 0
-0.004639 0.22108 0.18185 0
0.020008 0.22228 0.18413 0
0.044457 0.22239 0.18605 0
-0.16262 0.21477 0.15892 0
-0.084772 0.21351 0.17948 0
-0.060113 0.21597 0.17925 0
-0.035424 0.21804 0.1798 0
-0.010734 0.21972 0.18112 0
0.013925 0.22102 0.18321 0
-0.17142 0.21278 0.15336 0
-0.14281 0.21342 0.16452 0
-0.11538 0.20816 0.18038 0
-0.090804 0.21108 0.17918 0
-0.066157 0.21362 0.17875 0
-0.041471 0.21578 0.17909 0
-0.016778 0.21755 0.18022 0
0.0078919 0.21894 0.18211 0
0.05828 0.22383 0.17882 0
-0.12145 0.20642 0.18054 0
0.0017972 0.21765 0.18129 0
0.026431 0.21875 0.18376 0
-0.21262 0.2054 0.13705 0
-0.18669 0.20791 0.14605 0
-0.15656 0.21103 0.15696 0
-0.12865 0.20697 0.17119 0
-0.10281 0.20579 0.17854 0
-0.078194 0.20849 0.17771 0
-0.053522 0.21082 0.17765 0
-0.028827 0.21277 0.17838 0
-0.0041405 0.21434 0.17988 0
0.020508 0.21553 0.18216 0
0.045088 0.21634 0.1852 0
0.069483 0.22031 0.17838 0
-0.19585 0.20733 0.14113 0
-0.16126 0.206 0.16519 0
-0.13618 0.20962 0.16254 0
-0.1089 0.20432 0.17865 0
-0.084298 0.20712 0.17762 0
-0.059635 0.20953 0.17737 0
-0.034943 0.21157 0.1779 0
-0.010251 0.21324 0.1792 0
0.01441 0.21452 0.18128 0
0.03901 0.21542 0.18414 0
0.065635 0.22304 0.17132 0
-0.16749 0.2049 0.16594 0
-0.14098 0.2044 0.17204 0
-0.065794 0.20883 0.17732 0
-0.041106 0.21097 0.17765 0
-0.016412 0.21272 0.17876 0
0.00826 0.2141 0.18065 0
-0.17544 0.20515 0.15693 0
-0.14854 0.20482 0.16278 0
-0.12219 0.20401 0.1695 0
-0.096416 0.20275 0.17706 0
-0.071778 0.20533 0.17641 0
-0.047095 0.20754 0.17654 0
-0.022398 0.20938 0.17745 0
0.0022835 0.21084 0.17914 0
0.026919 0.21193 0.1816 0
0.051388 0.21331 0.18372 0
0.074794 0.21635 0.17707 0
-0.1548 0.20377 0.16342 0
0.0728 0.22156 0.17001 0
-0.22011 0.20136 0.13396 0
-0.18799 0.20126 0.15745 0
-0.13456 0.20103 0.17001 0
0.065168 0.2158 0.17734 0
0.096571 0.2204 0.15966 0
-0.19004 0.20491 0.14903 0
-0.16099 0.20072 0.16337 0
-0.10864 0.19908 0.17684 0
-0.08403 0.20182 0.17579 0
-0.059363 0.20419 0.17552 0
-0.034668 0.2062 0.17604 0
-0.0099737 0.20784 0.17733 0
0.014689 0.2091 0.1794 0
0.039291 0.20998 0.18225 0
0.091427 0.21883 0.17177 0
-0.14214 0.20209 0.1608 0
-0.11473 0.19702 0.17675 0
-0.090141 0.19984 0.17551 0
-0.065486 0.20229 0.17504 0
-0.040794 0.20438 0.17535 0
-0.016096 0.2061 0.17645 0
0.0085784 0.20744 0.17833 0
0.033199 0.20842 0.18098 0
0.059051 0.21336 0.1755 0
0.085477 0.21793 0.17091 0
-0.18155 0.19845 0.1558 0
-0.1546 0.19822 0.16145 0
-0.12819 0.19752 0.16797 0
-0.10236 0.19638 0.17534 0
-0.077737 0.19899 0.17447 0
-0.053058 0.20125 0.17439 0
-0.028358 0.20314 0.17509 0
-0.003667 0.20466 0.17657 0
0.020985 0.20581 0.17884 0
0.045567 0.20659 0.18188 0
0.073033 0.21563 0.1679 0
0.099853 0.2196 0.16363 0
-0.13577 0.20062 0.15951 0
0.065357 0.21104 0.17571 0
-0.19608 0.19679 0.14798 0
-0.16691 0.19281 0.16214 0
-0.14185 0.19639 0.15922 0
-0.089853 0.19418 0.17395 0
-0.065194 0.19659 0.17346 0
-0.040499 0.19864 0.17376 0
-0.015799 0.20034 0.17485 0
0.0088772 0.20166 0.17671 0
0.033499 0.20262 0.17936 0
0.059359 0.20747 0.17384 0
0.085792 0.21197 0.16922 0
0.11181 0.21484 0.16379 0
-0.20243 0.19556 0.14903 0
-0.17502 0.19569 0.15398 0
-0.14812 0.19536 0.15984 0
-0.12176 0.19458 0.16657 0
-0.096 0.19335 0.17415 0
-0.071354 0.19586 0.17347 0
-0.046665 0.198 0.17357 0
-0.021963 0.19978 0.17446 0
0.0027215 0.2012 0.17613 0
0.027359 0.20225 0.17859 0
0.053157 0.20719 0.17286 0
0.079537 0.21178 0.16802 0
0.10838 0.21951 0.15545 0
-0.22547 0.1954 0.13399 0
-0.11535 0.19185 0.16535 0
0.087684 0.21239 0.15942 0
0.115 0.21646 0.15576 0
-0.18287 0.19089 0.1444 0
-0.15566 0.19009 0.15232 0
-0.12886 0.18999 0.15668 0
-0.10269 0.1887 0.1644 0
-0.0771 0.18759 0.17208 0
-0.052416 0.18979 0.17197 0
-0.027711 0.19162 0.17264 0
-0.003017 0.19311 0.1741 0
0.021637 0.19423 0.17635 0
0.047379 0.19916 0.17037 0
0.073711 0.20374 0.16527 0
0.1006 0.20796 0.16109 0
0.12785 0.21133 0.15727 0
-0.21946 0.19302 0.13196 0
-0.18925 0.18961 0.14535 0
-0.16021 0.18564 0.15977 0
-0.13511 0.18905 0.15702 0
-0.10888 0.1881 0.16419 0
-0.083251 0.18672 0.17219 0
-0.058576 0.189 0.17188 0
-0.033874 0.19092 0.17235 0
-0.0091738 0.19249 0.17362 0
0.015493 0.19371 0.17567 0
0.040098 0.19456 0.1785 0
0.066027 0.19922 0.17314 0
0.094281 0.2077 0.15976 0
0.12164 0.21163 0.1563 0
-0.19557 0.18744 0.14619 0
-0.16819 0.18749 0.15136 0
-0.14134 0.18708 0.15744 0
-0.11505 0.18623 0.1644 0
-0.089352 0.18496 0.1722 0
-0.064688 0.18732 0.17169 0
-0.039989 0.18933 0.17196 0
-0.015285 0.19098 0.17303 0
0.0093929 0.19228 0.17488 0
0.034016 0.19323 0.17752 0
0.059886 0.19796 0.17194 0
0.088005 0.2065 0.15832 0
0.11533 0.21051 0.15463 0
0.15276 0.21411 0.13456 0
-0.20406 0.18852 0.13802 0
-0.17443 0.18486 0.15196 0
-0.14753 0.18456 0.15782 0
-0.12118 0.18381 0.16457 0
-0.095422 0.18264 0.17218 0
-0.070771 0.18508 0.17146 0
-0.046077 0.18717 0.17153 0
-0.021371 0.18891 0.1724 0
0.0033168 0.19029 0.17405 0
0.027957 0.19132 0.17649 0
0.053767 0.19612 0.1707 0
0.080157 0.20057 0.16579 0
0.10903 0.20879 0.15291 0
0.13681 0.2125 0.14995 0
0.15308 0.2045 0.15039 0
-0.18075 0.18277 0.15265 0
-0.1538 0.18256 0.15831 0
-0.1274 0.18192 0.16485 0
-0.10158 0.18084 0.17225 0
0.046186 0.19088 0.17784 0
-0.16175 0.18589 0.1501 0
-0.22807 0.19026 0.12333 0
0.086371 0.19801 0.16634 0
0.1432 0.20964 0.15092 0
-0.18287 0.1834 0.14279 0
-0.12883 0.18262 0.15491 0
-0.10266 0.18158 0.16229 0
-0.077106 0.18012 0.17051 0
-0.052416 0.18225 0.17038 0
-0.027707 0.18404 0.17103 0
-0.0030091 0.18547 0.17248 0
0.021648 0.18656 0.17472 0
0.047403 0.19136 0.16869 0
0.073747 0.19582 0.16354 0
0.10064 0.19992 0.15932 0
0.12806 0.20365 0.15604 0
-0.18926 0.18248 0.14381 0
-0.13512 0.1819 0.15549 0
-0.1089 0.18096 0.16267 0
-0.08327 0.1796 0.17069 0
-0.058589 0.18181 0.17035 0
-0.033882 0.18368 0.17081 0
-0.0091788 0.1852 0.17206 0
0.015491 0.18638 0.1741 0
0.040051 0.18742 0.17653 0
0.066051 0.19176 0.17139 0
0.094314 0.20001 0.15806 0
0.11927 0.20026 0.16042 0
0.152 0.21134 0.14323 0
-0.16832 0.1778 0.14918 0
-0.14147 0.17738 0.15526 0
-0.11519 0.17653 0.16223 0
-0.089495 0.17527 0.17006 0
-0.064822 0.17753 0.16951 0
-0.040116 0.17946 0.16976 0
0.0092758 0.18227 0.17265 0
0.033902 0.18316 0.17528 0
0.05979 0.18772 0.16964 0
0.086248 0.19194 0.1649 0
0.1131 0.19554 0.15942 0
0.14311 0.20331 0.14939 0
-0.17465 0.17683 0.15005 0
-0.14775 0.17651 0.15593 0
-0.095652 0.17459 0.1703 0
-0.070993 0.17694 0.16956 0
-0.046292 0.17894 0.16961 0
-0.021581 0.18061 0.17046 0
0.0031117 0.18193 0.1721 0
0.027755 0.18291 0.17453 0
0.053581 0.18756 0.16868 0
0.079986 0.19186 0.16373 0
0.10888 0.19984 0.15075 0
0.13668 0.20341 0.14776 0
-0.21063 0.17759 0.13691 0
-0.18284 0.17786 0.14159 0
-0.15555 0.17768 0.1472 0
-0.12899 0.17709 0.15413 0
-0.10173 0.17219 0.17029 0
-0.077086 0.1746 0.16935 0
-0.052392 0.17669 0.16919 0
-0.02768 0.17843 0.16984 0
-0.0029797 0.17983 0.17128 0
0.047443 0.1856 0.16744 0
0.073795 0.18997 0.16226 0
0.1007 0.19399 0.15801 0
0.12812 0.19764 0.1547 0
0.15856 0.20491 0.14356 0
-0.21938 0.17907 0.12893 0
-0.18919 0.17578 0.14239 0
-0.13506 0.1752 0.15409 0
-0.10883 0.17427 0.16127 0
-0.083207 0.17293 0.16931 0
-0.058522 0.17509 0.16895 0
-0.033811 0.17691 0.1694 0
0.015568 0.17953 0.17267 0
0.041268 0.18431 0.16638 0
0.067564 0.18875 0.16098 0
0.094421 0.19285 0.1565 0
0.11953 0.19281 0.15801 0
0.15213 0.20391 0.14157 0
-0.21819 0.17118 0.14601 0
0.08814 0.19149 0.15502 0
0.11548 0.1953 0.15126 0
0.14569 0.2027 0.13959 0
-0.18074 0.17033 0.14998 0
-0.15379 0.17011 0.15564 0
-0.10248 0.17223 0.16042 0
0.021843 0.17703 0.1728 0
0.10275 0.19393 0.14823 0
0.1613 0.2047 0.13389 0
0.18096 0.19759 0.13784 0
-0.16001 0.16799 0.15621 0
0.12199 0.19233 0.15215 0
-0.16797 0.16968 0.14771 0
-0.14112 0.16928 0.15381 0
-0.11376 0.1647 0.16999 0
-0.089145 0.16724 0.16863 0
-0.064469 0.16945 0.16806 0
-0.039759 0.17133 0.16829 0
-0.015047 0.17288 0.16932 0
0.0096381 0.17409 0.17115 0
0.035276 0.17887 0.16462 0
0.061518 0.18333 0.15898 0
0.1134 0.18785 0.15788 0
0.14351 0.19462 0.14767 0
0.17452 0.20153 0.13705 0
-0.17429 0.16866 0.14859 0
-0.14876 0.17126 0.14865 0
-0.070635 0.16879 0.1681 0
-0.021217 0.17239 0.16896 0
0.0034781 0.17368 0.17059 0
0.028123 0.17464 0.17301 0
0.053958 0.17917 0.16711 0
0.080372 0.18337 0.16211 0
0.10929 0.19114 0.14905 0
0.13471 0.19078 0.15479 0
0.16799 0.20165 0.13515 0
-0.21027 0.16975 0.1355 0
-0.18248 0.17002 0.14018 0
-0.15519 0.16986 0.14579 0
-0.12845 0.16927 0.15232 0
-0.052036 0.16892 0.1678 0
-0.027321 0.17063 0.16843 0
-0.0026183 0.172 0.16986 0
0.022881 0.17692 0.1629 0
0.047815 0.17764 0.16596 0
0.074175 0.18191 0.16074 0
0.10109 0.18583 0.15644 0
0.12851 0.18941 0.1531 0
-0.21893 0.16984 0.12726 0
-0.18875 0.16666 0.14076 0
-0.13462 0.16612 0.15247 0
-0.1084 0.16523 0.15967 0
-0.058089 0.16604 0.16734 0
-0.033375 0.16782 0.16776 0
-0.0086654 0.16927 0.16899 0
0.016009 0.17039 0.17101 0
0.041719 0.17503 0.16466 0
0.068024 0.17935 0.15921 0
0.094889 0.18334 0.15469 0
0.12228 0.18697 0.15111 0
0.15262 0.1941 0.13962 0
0.18408 0.20082 0.12932 0
-0.11458 0.1636 0.15992 0
-0.089655 0.16605 0.1595 0
0.0098959 0.16917 0.17025 0
0.034313 0.17012 0.17233 0
0.060426 0.17442 0.16715 0
0.088602 0.18233 0.15327 0
0.11595 0.18604 0.14947 0
0.14379 0.1894 0.14664 0
0.17753 0.20004 0.12716 0
-0.16759 0.16221 0.1463 0
-0.14074 0.16183 0.1524 0
-0.064094 0.16202 0.16666 0
-0.039381 0.16387 0.16687 0
-0.014667 0.16538 0.16789 0
0.035667 0.17124 0.16313 0
0.11443 0.18162 0.15522 0
0.17495 0.19339 0.13534 0
-0.2037 0.1645 0.13358 0
-0.17392 0.16117 0.14716 0
-0.14863 0.16419 0.1453 0
-0.12068 0.16018 0.15983 0
-0.094928 0.15909 0.16748 0
-0.07026 0.16133 0.16669 0
-0.020836 0.16485 0.16752 0
0.0038607 0.16612 0.16913 0
0.02849 0.16723 0.17125 0
0.055627 0.1753 0.15644 0
0.080771 0.1756 0.16056 0
0.1097 0.18318 0.14742 0
0.13751 0.18659 0.14435 0
0.16842 0.19344 0.13341 0
0.18664 0.1888 0.13909 0
-0.20992 0.16264 0.13409 0
-0.18213 0.16291 0.13877 0
-0.15484 0.16276 0.14439 0
-0.10194 0.16124 0.15834 0
-0.076391 0.15989 0.16661 0
-0.05169 0.16188 0.16642 0
-0.026972 0.16356 0.16703 0
0.022395 0.16593 0.17066 0
0.048175 0.17042 0.1645 0
0.074542 0.1746 0.15923 0
0.10146 0.17844 0.1549 0
0.12889 0.18193 0.15153 0
0.15936 0.18886 0.14024 0
0.19066 0.1953 0.12987 0
-0.04545 0.16097 0.16619 0
0.054457 0.16915 0.16507 0
0.082506 0.17701 0.1509 0
0.13476 0.18081 0.15192 0
-0.19475 0.15739 0.14006 0
-0.11425 0.15629 0.15834 0
-0.088564 0.15513 0.16621 0
0.010238 0.16174 0.16863 0
0.035891 0.16634 0.16202 0
0.060777 0.16687 0.16547 0
0.088969 0.17458 0.15152 0
0.11632 0.17821 0.14768 0
0.14657 0.18523 0.13586 0
0.17794 0.19186 0.12523 0
-0.16729 0.15472 0.14483 0
-0.14045 0.15435 0.15094 0
-0.039082 0.15636 0.1654 0
-0.014365 0.15784 0.1664 0
-0.13416 0.15525 0.15031 0
-0.10793 0.1544 0.15753 0
-0.082321 0.15317 0.1656 0
-0.057626 0.1552 0.1652 0
-0.0081939 0.15832 0.1668 0
0.042206 0.16389 0.16239 0
0.068523 0.16805 0.15688 0
0.095399 0.1719 0.1523 0
0.1228 0.17541 0.14867 0
0.15316 0.18228 0.13708 0
0.18464 0.18876 0.12668 0
-0.20315 0.1545 0.1313 0
-0.17356 0.15123 0.14541 0
-0.14815 0.15445 0.14204 0
-0.1215 0.15365 0.14914 0
-0.095374 0.15281 0.15644 0
-0.069904 0.15142 0.16494 0
-0.045192 0.15328 0.16493 0
-0.020471 0.15483 0.16572 0
0.0042285 0.15606 0.16732 0
0.029818 0.16065 0.16047 0
0.054731 0.16125 0.16372 0
0.081163 0.16522 0.15863 0
0.11011 0.17255 0.14539 0
0.14034 0.17953 0.13339 0
0.16886 0.18247 0.13125 0
0.1885 0.17958 0.13902 0
-0.19723 0.15357 0.13078 0
-0.11597 0.15221 0.15024 0
-0.063941 0.15346 0.15772 0
0.010437 0.15488 0.16766 0
0.036097 0.15937 0.16101 0
0.060985 0.15989 0.16446 0
0.08919 0.16743 0.15043 0
0.11861 0.17464 0.13749 0
0.14681 0.17783 0.13468 0
0.17819 0.18431 0.12399 0
-0.22059 0.15481 0.11491 0
-0.16289 0.15031 0.13707 0
-0.13396 0.14804 0.14937 0
-0.10774 0.14722 0.15659 0
-0.08275 0.14954 0.15534 0
-0.03271 0.14968 0.16464 0
0.016684 0.15212 0.16783 0
0.042415 0.15649 0.16138 0
0.068739 0.16055 0.15583 0
0.095623 0.16431 0.15121 0
0.12303 0.16773 0.14755 0
0.15597 0.17803 0.12713 0
0.18772 0.18437 0.11654 0
-0.18163 0.14773 0.13637 0
-0.15435 0.1476 0.142 0
-0.12761 0.14708 0.14855 0
-0.075914 0.1449 0.16429 0
-0.026482 0.14839 0.16464 0
-0.0017726 0.14968 0.16603 0
0.023127 0.15142 0.16705 0
0.04869 0.15493 0.16198 0
0.075073 0.15889 0.15664 0
0.10191 0.16254 0.15172 0
0.13169 0.16947 0.13973 0
0.16252 0.17604 0.1284 0
0.18863 0.17506 0.13603 0
-0.17341 0.14582 0.1447 0
-0.14652 0.14555 0.15059 0
-0.12132 0.14837 0.14808 0
-0.095225 0.14737 0.15573 0
-0.069757 0.14601 0.16423 0
-0.045043 0.14784 0.16421 0
0.0043812 0.15057 0.16659 0
0.029977 0.15508 0.15971 0
0.05489 0.15568 0.16295 0
0.082965 0.16319 0.14865 0
0.11029 0.16677 0.14454 0
0.14043 0.17362 0.13237 0
0.17171 0.1801 0.12139 0
-0.21812 0.14679 0.12342 0
-0.19042 0.14682 0.12866 0
-0.16063 0.14383 0.14243 0
-0.057306 0.14338 0.16366 0
0.017591 0.15098 0.15789 0
0.097579 0.16299 0.14135 0
0.15605 0.17295 0.12613 0
0.18506 0.17562 0.12464 0
-0.21156 0.14635 0.12197 0
-0.10134 0.14183 0.15546 0
0.023873 0.14979 0.15836 0
0.10403 0.16152 0.14246 0
-0.17511 0.14415 0.13483 0
-0.14787 0.14394 0.14068 0
-0.12119 0.14335 0.14745 0
-0.095096 0.14238 0.15511 0
-0.044913 0.14284 0.16359 0
0.004514 0.14553 0.16595 0
0.030116 0.14996 0.15904 0
0.056327 0.15409 0.15303 0
0.083114 0.15792 0.14794 0
0.11044 0.16144 0.1438 0
0.13827 0.16463 0.14064 0
0.17188 0.17454 0.12056 0
0.19381 0.17056 0.13496 0
-0.18148 0.14186 0.13564 0
-0.15419 0.14174 0.14127 0
-0.12746 0.14123 0.14782 0
-0.075763 0.13911 0.16358 0
-0.026326 0.14254 0.16391 0
0.048855 0.14894 0.1612 0
0.075176 0.15294 0.15565 0
0.12915 0.16037 0.14567 0
0.16272 0.16963 0.12746 0
0.19174 0.17218 0.1262 0
0.022613 0.14332 0.16602 0
0.076887 0.1543 0.14625 0
0.10241 0.15473 0.1479 0
0.18884 0.16657 0.13384 0
-0.20273 0.14038 0.12939 0
-0.076169 0.13956 0.15372 0
0.13201 0.16 0.13828 0
-0.20548 0.14113 0.12312 0
-0.17489 0.13831 0.13393 0
-0.14765 0.13811 0.13978 0
-0.12097 0.13753 0.14656 0
-0.094882 0.13659 0.15423 0
-0.0447 0.13706 0.16271 0
0.0047307 0.1397 0.16505 0
0.030339 0.14403 0.15811 0
0.054921 0.14486 0.1606 0
0.083348 0.15184 0.14694 0
0.11068 0.15529 0.14278 0
0.13851 0.15841 0.1396 0
0.17214 0.16812 0.11944 0
-0.21129 0.13903 0.12082 0
-0.18125 0.13612 0.13471 0
-0.15397 0.136 0.14034 0
-0.12723 0.13551 0.1469 0
-0.075541 0.13345 0.16268 0
-0.0261 0.13681 0.16299 0
0.024152 0.14244 0.1572 0
0.04909 0.1431 0.16023 0
0.075312 0.14711 0.15393 0
0.10433 0.15387 0.14118 0
0.16298 0.16336 0.12634 0
0.19201 0.16586 0.12506 0
-0.019947 0.13716 0.16322 0
0.056613 0.14666 0.15183 0
0.1409 0.16039 0.13025 0
-0.050823 0.13383 0.16223 0
-0.00085507 0.14 0.15477 0
-0.069853 0.1348 0.15282 0
-0.18358 0.13511 0.12555 0
-0.12904 0.13443 0.13986 0
-0.076205 0.13269 0.15278 0
-0.0015293 0.13389 0.16386 0
0.050179 0.14223 0.15038 0
0.076924 0.14598 0.14501 0
0.13202 0.15255 0.13717 0
0.16547 0.16213 0.11665 0
-0.17498 0.13285 0.13321 0
-0.14774 0.13264 0.13906 0
-0.12106 0.13207 0.14585 0
-0.094975 0.13114 0.15352 0
-0.044792 0.13158 0.162 0
-0.019795 0.13637 0.15334 0
0.0046428 0.13415 0.16433 0
0.083283 0.14601 0.14613 0
0.11062 0.14938 0.14194 0
0.13831 0.15249 0.13833 0
0.1721 0.16192 0.11851 0
0.19339 0.15866 0.13167 0
-0.18146 0.131 0.1341 0
-0.15417 0.13087 0.13973 0
-0.12744 0.13038 0.1463 0
-0.026304 0.1316 0.16238 0
0.023958 0.13709 0.15655 0
0.048898 0.13772 0.15958 0
0.10416 0.14825 0.14046 0
0.16283 0.15753 0.12555 0
0.19186 0.15997 0.12425 0
-0.070184 0.1292 0.15222 0
0.0050249 0.13345 0.1545 0
0.056257 0.13817 0.15082 0
0.11241 0.14841 0.13224 0
-0.18343 0.12975 0.12432 0
-0.15514 0.12835 0.13366 0
-0.1022 0.12831 0.14398 0
-0.076352 0.12723 0.1522 0
-0.051125 0.12573 0.16137 0
-0.0016751 0.12837 0.16327 0
0.050049 0.13652 0.14973 0
0.076801 0.14017 0.14434 0
0.1319 0.14658 0.13645 0
-0.21122 0.12704 0.11941 0
-0.12718 0.12367 0.14556 0
-0.025859 0.12815 0.15218 0
0.024223 0.13026 0.15576 0
0.10444 0.14116 0.13957 0
0.16312 0.15021 0.12458 0
0.19216 0.1526 0.12326 0
-0.20253 0.12486 0.12743 0
-0.17743 0.12666 0.12549 0
-0.14754 0.12483 0.1382 0
-0.12087 0.12428 0.14499 0
-0.096503 0.12537 0.14456 0
-0.044597 0.12382 0.16115 0
-0.01959 0.12847 0.15245 0
0.0047205 0.12646 0.16285 0
0.083505 0.13785 0.14514 0
0.11085 0.14112 0.14092 0
0.14103 0.14738 0.12854 0
0.16967 0.15002 0.12641 0
0.19225 0.15132 0.12903 0
-0.18255 0.12325 0.12353 0
-0.15501 0.12218 0.1314 0
-0.10135 0.12204 0.14311 0
-0.07547 0.12096 0.15145 0
-0.050243 0.11954 0.16063 0
-0.025526 0.12131 0.16034 0
-0.00025649 0.12541 0.15307 0
0.050932 0.13021 0.14891 0
0.077685 0.13381 0.14349 0
0.13505 0.14339 0.12636 0
0.19564 0.1517 0.11366 0
-0.2146 0.11888 0.12884 0
-0.13433 0.12138 0.13696 0
-0.10765 0.12127 0.1435 0
-0.056399 0.11892 0.1606 0
-0.031593 0.12052 0.16027 0
-0.0064927 0.12492 0.15262 0
0.01854 0.12591 0.15461 0
0.044647 0.12986 0.14804 0
0.071344 0.13353 0.14239 0
0.098595 0.13692 0.1377 0
0.12636 0.14002 0.13399 0
0.15712 0.14604 0.12217 0
0.18615 0.14849 0.1206 0
-0.22088 0.11735 0.12846 0
-0.19545 0.1203 0.1256 0
-0.14069 0.12006 0.13708 0
-0.11393 0.11958 0.14383 0
-0.062861 0.12055 0.15103 0
-0.037798 0.11899 0.16064 0
-0.013016 0.12059 0.16064 0
0.011265 0.12209 0.16146 0
0.038382 0.12857 0.1471 0
0.063489 0.12917 0.14998 0
0.092225 0.13575 0.1363 0
0.11786 0.13567 0.14158 0
0.14817 0.14175 0.12942 0
0.17681 0.14418 0.12615 0
-0.21279 0.12186 0.10913 0
-0.12653 0.11576 0.14462 0
-0.025201 0.12021 0.1512 0
-0.00063578 0.11831 0.16172 0
0.025771 0.12549 0.14533 0
0.10512 0.13295 0.13847 0
0.13293 0.13592 0.13498 0
0.16381 0.14177 0.12338 0
0.19285 0.14412 0.12205 0
-0.18889 0.11597 0.12384 0
-0.13423 0.11543 0.13587 0
-0.10753 0.11504 0.14276 0
-0.081582 0.11406 0.15089 0
-0.05652 0.11585 0.15038 0
-0.031164 0.11501 0.15794 0
0.01867 0.11958 0.15384 0
0.044784 0.12343 0.14723 0
0.071487 0.12701 0.14156 0
0.098744 0.13032 0.13684 0
0.12652 0.13333 0.13311 0
0.15729 0.13921 0.12124 0
0.18917 0.14475 0.1106 0
-0.19536 0.11394 0.12484 0
-0.16764 0.11405 0.12998 0
-0.14046 0.11382 0.13607 0
-0.11384 0.11325 0.14309 0
-0.062772 0.11419 0.15029 0
-0.037691 0.11577 0.1504 0
-0.012612 0.11707 0.15134 0
0.038484 0.122 0.14629 0
0.065131 0.12564 0.14039 0
0.09234 0.129 0.13543 0
0.11774 0.12946 0.13952 0
0.1483 0.13485 0.1285 0
0.17974 0.14045 0.11749 0
-0.20396 0.11585 0.1167 0
-0.17611 0.11589 0.12215 0
-0.14684 0.11299 0.1368 0
-0.094839 0.1147 0.14181 0
-0.04396 0.11522 0.15027 0
-0.018877 0.11659 0.15101 0
0.0061805 0.11769 0.15258 0
0.032161 0.12165 0.14553 0
0.057424 0.12221 0.1488 0
0.085907 0.12878 0.13422 0
0.1136 0.13193 0.13002 0
0.14179 0.13478 0.12682 0
0.17043 0.13732 0.12466 0
-0.1804 0.11149 0.13182 0
-0.15466 0.11436 0.12803 0
-0.10109 0.11327 0.14204 0
-0.050142 0.11393 0.15008 0
9.8348e-06 0.11654 0.15196 0
0.024994 0.11746 0.15405 0
0.051209 0.12119 0.14776 0
0.07797 0.12467 0.14229 0
0.10528 0.12788 0.13779 0
0.13309 0.1308 0.13428 0
0.16398 0.13654 0.12265 0
0.19294 0.13888 0.12123 0
-0.21424 0.10873 0.12666 0
-0.1885 0.11088 0.12311 0
-0.16083 0.11093 0.12848 0
-0.10715 0.11002 0.14205 0
-0.056136 0.11084 0.14966 0
0.019057 0.11454 0.1531 0
0.045174 0.11832 0.14647 0
0.07188 0.12184 0.14077 0
0.09914 0.12509 0.13603 0
0.12692 0.12806 0.13228 0
0.15769 0.13383 0.12037 0
0.18958 0.13927 0.1097 0
-0.087367 0.1077 0.15032 0
0.12287 0.13013 0.1217 0
0.15121 0.133 0.11848 0
0.18021 0.13544 0.11663 0
-0.21223 0.11012 0.10753 0
-0.18166 0.10776 0.12141 0
-0.15404 0.10775 0.12701 0
-0.12696 0.10741 0.13356 0
-0.10047 0.10674 0.14103 0
-0.074595 0.10575 0.1494 0
0.00094782 0.11303 0.14281 0
0.026546 0.11394 0.14363 0
0.051834 0.11458 0.14669 0
0.078598 0.11799 0.1412 0
0.10784 0.12418 0.12735 0
0.13599 0.12704 0.12389 0
0.16462 0.12961 0.12146 0
0.19661 0.1349 0.11103 0
-0.081442 0.10824 0.14007 0
-0.030709 0.10852 0.14938 0
-0.0051841 0.11282 0.14361 0
0.02021 0.11374 0.143 0
0.18708 0.13209 0.11806 0
-0.22521 0.10759 0.11003 0
-0.1669 0.10546 0.12861 0
-0.14104 0.10792 0.12583 0
-0.11383 0.10737 0.1336 0
-0.062037 0.10571 0.14894 0
-0.036954 0.10725 0.14903 0
-0.011873 0.10854 0.14996 0
0.013898 0.11257 0.14222 0
0.039229 0.11334 0.14486 0
0.065882 0.11687 0.13891 0
0.093096 0.12014 0.13393 0
-0.075004 0.10553 0.13916 0
-0.02435 0.10568 0.1489 0
0.00071888 0.10682 0.15024 0
0.053172 0.11431 0.13652 0
0.080284 0.11768 0.13107 0
0.13837 0.1266 0.11386 0
-0.18807 0.10371 0.12179 0
-0.16248 0.10593 0.11885 0
-0.13327 0.10351 0.13349 0
-0.055704 0.10374 0.14836 0
0.045617 0.11104 0.1451 0
0.07233 0.11446 0.13937 0
0.099595 0.11762 0.1346 0
0.12957 0.12351 0.12154 0
0.15816 0.12611 0.11886 0
-0.11302 0.10165 0.14106 0
-0.087677 0.10371 0.13945 0
0.12304 0.12276 0.11986 0
0.15161 0.12542 0.11694 0
0.18062 0.12779 0.11507 0
-0.21185 0.10388 0.10609 0
-0.1815 0.10149 0.12007 0
-0.15387 0.10148 0.12566 0
-0.1268 0.10115 0.13222 0
-0.10151 0.10295 0.13164 0
-0.024696 0.10522 0.14044 0
0.00024412 0.10075 0.15913 0
0.026722 0.10749 0.14225 0
0.10803 0.11744 0.12588 0
0.16482 0.12271 0.11995 0
0.19283 0.12544 0.11733 0
-0.19047 0.10165 0.11498 0
-0.081273 0.1018 0.1387 0
-0.03054 0.10207 0.14802 0
-0.0059304 0.10034 0.1587 0
0.020389 0.10713 0.14159 0
0.18729 0.12495 0.1165 0
-0.22505 0.10116 0.10872 0
-0.1965 0.1015 0.11321 0
-0.16845 0.10184 0.11787 0
-0.1408 0.10156 0.12467 0
-0.11396 0.10121 0.13093 0
-0.061881 0.099329 0.14766 0
-0.036795 0.10083 0.14774 0
-0.012094 0.09917 0.15822 0
0.014067 0.106 0.14089 0
0.039399 0.10674 0.14352 0
0.066058 0.11017 0.13755 0
0.093279 0.11334 0.13253 0
-0.10024 0.096746 0.13921 0
-0.074855 0.098629 0.13801 0
-0.04929 0.097413 0.14725 0
0.00086976 0.099882 0.14908 0
0.053338 0.10714 0.13529 0
0.07886 0.1075 0.13925 0
0.13856 0.11905 0.11252 0
0.19692 0.12365 0.10885 0
-0.18792 0.096782 0.12065 0
-0.16208 0.098944 0.11783 0
-0.13486 0.098861 0.12525 0
-0.10751 0.098714 0.13023 0
-0.055558 0.096822 0.14723 0
-0.030473 0.10119 0.13866 0
0.045777 0.10389 0.14391 0
0.072496 0.10721 0.13815 0
0.10162 0.11318 0.12396 0
0.1319 0.11832 0.11174 0
0.15835 0.1185 0.11753 0
0.19026 0.12362 0.10676 0
-0.21834 0.096331 0.10656 0
-0.13307 0.093915 0.13202 0
-0.081153 0.095277 0.13786 0
-0.0058141 0.093869 0.15788 0
0.020518 0.10047 0.14071 0
0.046998 0.104 0.13405 0
0.12981 0.11308 0.11984 0
-0.19903 0.096122 0.10742 0
-0.16832 0.095069 0.11699 0
-0.1408 0.094923 0.12306 0
-0.11384 0.094466 0.13007 0
-0.087482 0.093706 0.138 0
-0.062072 0.095432 0.13722 0
-0.036635 0.096912 0.13729 0
-0.012363 0.08968 0.16697 0
0.013463 0.096286 0.14955 0
0.039531 0.099847 0.14262 0
0.067625 0.10602 0.12714 0
0.095195 0.1091 0.12216 0
0.12329 0.11192 0.11818 0
0.15186 0.11447 0.11522 0
0.18367 0.11957 0.10416 0
-0.17484 0.094375 0.118 0
-0.14727 0.0943 0.12383 0
-0.11916 0.091187 0.14018 0
-0.068032 0.092231 0.14693 0
-0.042995 0.096549 0.13719 0
-0.018458 0.089392 0.16667 0
0.0065564 0.093222 0.1586 0
0.033206 0.099674 0.14188 0
0.059812 0.10306 0.13565 0
0.086987 0.1062 0.13038 0
0.11672 0.11194 0.11673 0
0.14527 0.11455 0.11354 0
0.17426 0.11689 0.1114 0
-0.20943 0.090337 0.11425 0
-0.15533 0.093206 0.11528 0
-0.10094 0.092433 0.12893 0
-0.074725 0.091552 0.1373 0
-0.049296 0.093136 0.13694 0
-0.024502 0.086155 0.16625 0
-0.00012564 0.087203 0.16754 0
0.026936 0.096411 0.14098 0
0.053483 0.099814 0.13452 0
0.080608 0.10298 0.12901 0
0.11022 0.1087 0.11508 0
0.13873 0.11135 0.11164 0
0.16415 0.11149 0.11699 0
0.19193 0.11558 0.11154 0
-0.18778 0.088961 0.11995 0
-0.16172 0.091646 0.11586 0
-0.13427 0.091441 0.12216 0
-0.10734 0.090937 0.12934 0
-0.081058 0.090129 0.1375 0
-0.030454 0.08765 0.15642 0
-0.0061989 0.085997 0.16712 0
0.020619 0.095216 0.14032 0
0.047104 0.098665 0.13363 0
0.074175 0.10188 0.12788 0
0.1018 0.10484 0.12312 0
0.13213 0.11035 0.11002 0
0.15854 0.10998 0.11664 0
0.19045 0.11493 0.10581 0
-0.2343 0.0981 0.070018 0
-0.1682 0.0887 0.1167 0
-0.14068 0.088566 0.12276 0
-0.11372 0.088131 0.12978 0
-0.087363 0.0874 0.13772 0
-0.061646 0.086381 0.14655 0
-0.036555 0.087806 0.14661 0
-0.012252 0.083513 0.16673 0
0.011764 0.08397 0.16744 0
0.040745 0.096163 0.13275 0
0.066328 0.096638 0.13627 0
0.093543 0.099805 0.13058 0
0.12343 0.10515 0.11776 0
0.15201 0.10763 0.11479 0
0.18382 0.1126 0.10368 0
-0.18965 0.087426 0.11038 0
-0.05556 0.087666 0.13682 0
-0.030513 0.080928 0.16597 0
-0.0068194 0.078093 0.17373 0
0.045885 0.092838 0.1409 0
-0.23408 0.096862 0.059322 0
-0.087858 0.086274 0.12957 0
-0.036537 0.081689 0.15606 0
0.012907 0.083762 0.15866 0
0.067835 0.095793 0.12653 0
0.095412 0.098747 0.12151 0
0.15009 0.1022 0.11989 0
-0.21811 0.08447 0.10573 0
-0.16159 0.084993 0.11536 0
-0.13411 0.0848 0.12166 0
-0.10722 0.084311 0.1289 0
-0.080933 0.083535 0.13707 0
-0.0060834 0.079551 0.16673 0
0.02075 0.088491 0.13985 0
0.047241 0.09184 0.13313 0
0.074317 0.094959 0.12736 0
0.10381 0.10055 0.11313 0
0.13229 0.10318 0.10943 0
0.15869 0.10284 0.11605 0
0.1874 0.10582 0.11044 0
-0.23681 0.098511 0.050337 0
-0.061871 0.084891 0.13658 0
