# .PCD v.7 - Point Cloud Data file format
VERSION .7
FIELDS x y z rgb
SIZE 4 4 4 4
TYPE F F F F
COUNT 1 1 1 1
WIDTH  1505
HEIGHT 1
VIEWPOINT 0 0 0 1 0 0 0
POINTS 1505
DATA ascii
1.17828 1.8189 0.833672 263168
1.15297 1.78728 0.83327 656384
1.10221 1.69434 0.832464 328448
1.05125 1.66023 0.831655 721408
1.0001 1.62599 0.830843 918528
1.0257 1.59869 0.831249 394242
1.05125 1.57144 0.831655 459522
1.07675 1.54425 0.83206 393984
1.17828 1.49489 0.833672 65793
1.22875 1.47035 0.834474 393984
1.32914 1.45085 0.836068 656128
1.37904 1.42653 0.83686 197121
1.42877 1.4023 0.83765 196608
1.45356 1.37565 0.838044 459779
1.503 1.35159 0.838829 459779
1.57682 1.33017 0.840001 459521
1.65022 1.30887 0.841167 393984
1.6746 1.28252 0.841554 459520
1.69893 1.25623 0.84194 525314
1.74746 1.23261 0.842711 262401
1.79582 1.20908 0.843478 459522
1.84399 1.18563 0.844243 459520
1.89198 1.16227 0.845006 197379
1.9398 1.139 0.845765 263171
1.9398 1.11039 0.845765 525314
1.96365 1.08451 0.846144 459780
1.98745 1.05869 0.846521 591105
2.03492 1.03569 0.847275 328448
2.03492 1.00718 0.847275 459776
2.03492 0.978667 0.847275 459776
2.08221 0.955858 0.848026 459521
2.10579 0.930268 0.848401 459779
2.12933 0.904724 0.848775 459521
2.12933 0.876317 0.848775 590592
2.12933 0.84791 0.848775 394242
2.12933 0.819502 0.848775 394242
2.15283 0.794083 0.849148 393472
2.12933 0.762688 0.848775 721923
2.12933 0.734281 0.848775 852737
2.12933 0.705873 0.848775 459521
2.15283 0.680558 0.849148 393985
2.15283 0.652177 0.849148 262913
2.12933 0.620651 0.848775 393472
2.12933 0.592244 0.848775 394241
2.12933 0.563837 0.848775 393984
2.12933 0.535429 0.848775 459264
2.10579 0.503769 0.848401 328192
2.05859 0.468761 0.847652 394244
2.05859 0.440275 0.847652 328707
2.08221 0.415133 0.848026 328704
2.03492 0.37993 0.847275 459521
1.98745 0.344597 0.846521 459777
1.96365 0.312587 0.846144 656385
1.96365 0.283998 0.846144 852737
1.89198 0.244873 0.845006 852736
1.84399 0.209096 0.844243 459779
0.488025 3.03045 0.832711 263170
0.6202 3.00541 0.837407 459777
0.672714 2.97747 0.839273 787457
0.725025 2.94963 0.841131 918787
0.803117 2.92301 0.843906 394244
0.854929 2.89541 0.845747 263425
0.880761 2.86676 0.846665 263169
0.932276 2.83935 0.848495 263171
0.983595 2.81204 0.850318 460552
1.03472 2.78484 0.852135 394245
1.03472 2.75524 0.852135 591108
1.06021 2.72693 0.85304 459777
1.08565 2.69866 0.853944 459520
1.13639 2.64229 0.855747 394240
1.16168 2.61419 0.856645 459520
1.18693 2.58613 0.857543 459779
1.21213 2.55814 0.858438 459520
1.18693 2.52728 0.857543 394241
1.21213 2.49934 0.858438 787456
1.23729 2.47145 0.859332 656384
1.23729 2.44208 0.859332 656384
1.21213 2.41114 0.858438 459520
1.23729 2.38333 0.859332 394244
1.28745 2.35719 0.861113 656385
1.28745 2.32787 0.861113 590848
1.23729 2.29522 0.859332 984064
1.23729 2.26584 0.859332 590849
1.26239 2.2382 0.860223 459521
1.23729 2.2071 0.859332 393984
1.23729 2.17773 0.859332 459776
1.28745 2.15198 0.861113 525057
1.31246 2.12449 0.862003 786944
1.28745 2.09334 0.861113 656385
1.26239 2.06214 0.860223 459520
1.23729 2.03087 0.859332 525568
1.23729 2.0015 0.859332 590849
1.23729 1.97213 0.859332 459779
1.23729 1.94275 0.859332 459776
1.23729 1.91338 0.859332 460033
1.21213 1.88195 0.858438 459776
1.18693 1.85045 0.857543 656128
1.16168 1.8189 0.856645 722176
1.13639 1.78728 0.855747 263168
1.08565 1.75342 0.853944 459520
1.06021 1.72165 0.85304 459776
1.00918 1.68756 0.851227 197377
1.00918 1.65794 0.851227 263170
1.00918 1.62831 0.851227 459520
1.00918 1.59869 0.851227 263171
1.03472 1.57144 0.852135 393987
1.08565 1.54664 0.853944 459521
1.16168 1.49489 0.856645 197378
1.21213 1.47035 0.858438 394241
1.28745 1.44838 0.861113 459520
1.36235 1.42653 0.863775 459520
1.41204 1.4023 0.865541 459523
1.46155 1.37817 0.8673 459779
1.51088 1.35412 0.869052 525056
1.56002 1.33017 0.870797 263168
1.60898 1.3063 0.872537 459521
1.63339 1.27993 0.873404 459520
1.70635 1.25883 0.875997 459523
1.73058 1.23261 0.876857 459523
1.77891 1.20908 0.878575 394241
1.82706 1.18563 0.880285 525314
1.85107 1.1596 0.881138 721920
1.89895 1.13631 0.882839 721665
1.94666 1.1131 0.884534 656128
1.94666 1.08451 0.884534 591107
1.97044 1.05869 0.88538 918787
1.99419 1.03291 0.886223 984064
2.04155 1.00998 0.887906 525056
2.06516 0.984317 0.888745 459521
2.06516 0.955858 0.888745 590850
2.06516 0.927399 0.888745 263170
2.08873 0.901834 0.889582 262912
2.11226 0.876317 0.890418 459521
2.11226 0.84791 0.890418 460292
2.11226 0.819502 0.890418 263170
2.11226 0.791095 0.890418 197377
2.13575 0.765702 0.891252 262915
2.15919 0.740355 0.892085 459776
2.13575 0.708939 0.891252 263171
2.11226 0.677466 0.890418 197634
2.11226 0.649059 0.890418 197633
2.11226 0.620651 0.890418 393984
2.11226 0.592244 0.890418 459521
2.11226 0.563837 0.890418 131585
2.11226 0.535429 0.890418 262914
2.08873 0.503769 0.889582 459523
2.04155 0.468761 0.887906 853509
2.04155 0.440275 0.887906 852737
2.01789 0.408441 0.887065 459520
1.99419 0.376548 0.886223 459521
1.97044 0.344597 0.88538 263168
1.94666 0.312587 0.884534 459520
1.92282 0.280519 0.883688 197377
1.87503 0.244873 0.88199 65793
1.85107 0.212654 0.881138 262915
0.445017 3.02944 0.840666 984064
0.57733 3.00439 0.84797 918273
0.656106 2.97747 0.852319 984066
0.708371 2.94963 0.855204 918787
0.760436 2.92191 0.858078 460035
0.838159 2.89541 0.862369 263170
0.889727 2.86791 0.865216 525314
0.915437 2.83935 0.866635 591105
0.941098 2.81085 0.868052 657155
0.966711 2.78239 0.869466 722435
1.01779 2.75524 0.872286 656385
1.04326 2.72693 0.873692 459779
1.06867 2.69866 0.875094 197632
1.14464 2.61419 0.879288 787200
1.14464 2.58473 0.879288 394240
1.16987 2.55671 0.880681 459776
1.16987 2.52728 0.880681 525056
1.16987 2.49785 0.880681 525313
1.16987 2.46843 0.880681 525314
1.19505 2.44054 0.882071 656385
1.19505 2.41114 0.882071 656643
1.22018 2.38333 0.883458 525316
1.24526 2.35558 0.884843 590850
1.24526 2.32623 0.884843 591360
1.22018 2.29522 0.883458 591360
1.24526 2.26754 0.884843 460544
1.24526 2.2382 0.884843 656899
1.24526 2.20886 0.884843 394240
1.2703 2.18129 0.886225 591105
1.2703 2.15198 0.886225 787456
1.22018 2.11899 0.883458 525568
1.22018 2.08961 0.883458 525313
1.22018 2.06024 0.883458 263169
1.24526 2.03279 0.884843 656128
1.24526 2.00345 0.884843 459520
1.19505 1.97015 0.882071 263168
1.19505 1.94075 0.882071 459520
1.19505 1.91135 0.882071 459776
1.19505 1.88195 0.882071 590592
1.16987 1.85045 0.880681 459520
1.14464 1.8189 0.879288 460035
1.11937 1.78728 0.877893 591108
1.06867 1.75342 0.875094 459522
1.04326 1.72165 0.873692 459520
1.01779 1.68982 0.872286 590849
1.01779 1.66023 0.872286 525057
1.01779 1.63063 0.872286 655872
0.992274 1.59869 0.870877 459520
0.992274 1.56907 0.870877 262915
1.04326 1.54425 0.873692 787457
1.06867 1.5171 0.875094 459776
1.14464 1.49489 0.879288 459521
1.19505 1.47035 0.882071 393985
1.2703 1.44838 0.886225 263171
1.32023 1.42404 0.888982 459777
1.39478 1.4023 0.893097 459776
1.44424 1.37817 0.895828 394240
1.5181 1.35666 0.899905 459520
1.54262 1.33017 0.901259 590592
1.5671 1.30373 0.90261 721665
1.61593 1.27993 0.905306 591105
1.66457 1.25623 0.907991 525313
1.71303 1.23261 0.910666 394242
1.78539 1.21172 0.914661 262915
1.83341 1.18829 0.917312 459779
1.88125 1.16495 0.919953 655872
1.88125 1.13631 0.919953 459520
1.9051 1.11039 0.921269 459520
1.92891 1.08451 0.922584 525056
1.95268 1.05869 0.923896 459779
2.00008 1.03569 0.926512 656385
2.02372 1.00998 0.927818 263168
2.04731 0.984317 0.92912 262912
2.04731 0.955858 0.92912 394241
2.07086 0.930268 0.93042 262913
2.09437 0.904724 0.931718 197632
2.09437 0.876317 0.931718 459776
2.09437 0.84791 0.931718 459777
2.09437 0.819502 0.931718 262912
2.09437 0.791095 0.931718 394242
2.09437 0.762688 0.931718 525314
2.09437 0.734281 0.931718 459776
2.09437 0.705873 0.931718 459776
2.11783 0.680558 0.933014 328448
2.11783 0.652177 0.933014 197379
2.09437 0.620651 0.931718 394240
2.09437 0.592244 0.931718 262912
2.09437 0.563837 0.931718 197377
2.09437 0.535429 0.931718 197377
2.07086 0.503769 0.93042 459523
2.04731 0.472051 0.92912 459523
2.00008 0.436952 0.926512 656387
2.00008 0.408441 0.926512 918017
2.00008 0.37993 0.926512 917760
1.95268 0.344597 0.923896 721920
1.92891 0.312587 0.922584 394241
1.9051 0.280519 0.921269 393984
1.88125 0.248391 0.919953 459008
1.83341 0.212654 0.917312 197377
0.26815 3.05375 0.837233 262401
0.454957 3.03045 0.851229 262913
0.56057 3.00439 0.859142 525056
0.639246 2.97747 0.865036 328449
0.691444 2.94963 0.868947 394756
0.769367 2.92301 0.874786 459781
0.769367 2.89316 0.874786 459523
0.846842 2.86676 0.880591 459521
0.872568 2.83818 0.882518 591367
0.898245 2.80964 0.884442 656645
0.898245 2.77994 0.884442 394758
1.00047 2.75524 0.892101 525828
1.0259 2.72693 0.894006 459521
1.05129 2.69866 0.895908 263170
1.10191 2.64229 0.899702 394240
1.10191 2.61281 0.899702 721920
1.12716 2.58473 0.901592 525056
1.15235 2.55671 0.90348 263169
1.15235 2.52728 0.90348 263169
1.15235 2.49785 0.90348 263168
1.15235 2.46843 0.90348 263168
1.15235 2.439 0.90348 394240
1.15235 2.40957 0.90348 460032
1.2026 2.38333 0.907245 525313
1.22765 2.35558 0.909122 459520
1.2026 2.32459 0.907245 656128
1.2026 2.29522 0.907245 918528
1.22765 2.26754 0.909122 787714
1.2026 2.23647 0.907245 984067
1.22765 2.20886 0.909122 984834
1.25265 2.18129 0.910995 656384
1.22765 2.15017 0.909122 197376
1.2026 2.11899 0.907245 263680
1.22765 2.09148 0.909122 394240
1.22765 2.06214 0.909122 721920
1.2026 2.03087 0.907245 459776
1.2026 2.0015 0.907245 459776
1.1775 1.97015 0.905364 328705
1.1775 1.94075 0.905364 394240
1.1775 1.91135 0.905364 459776
1.15235 1.87988 0.90348 263168
1.12716 1.84835 0.901592 459520
1.10191 1.81677 0.899702 525313
1.05129 1.75342 0.895908 394241
1.00047 1.71942 0.892101 459776
0.974985 1.68756 0.890191 263169
0.974985 1.65794 0.890191 263169
0.949454 1.62599 0.888278 197632
0.923873 1.59398 0.886362 262912
0.949454 1.56668 0.888278 263172
1.00047 1.54185 0.892101 590592
1.12716 1.49489 0.901592 262912
1.1775 1.47035 0.905364 327936
1.25265 1.44838 0.910995 197378
1.32739 1.42653 0.916595 459520
1.37697 1.4023 0.92031 327936
1.42638 1.37817 0.924011 459521
1.4756 1.35412 0.927699 459779
1.4756 1.32505 0.927699 852994
1.54908 1.30373 0.933204 459779
1.59784 1.27993 0.936857 262915
1.67064 1.25883 0.942313 263171
1.69482 1.23261 0.944124 197633
1.74304 1.20908 0.947737 459521
1.79109 1.18563 0.951336 525056
1.81504 1.1596 0.953131 262914
1.83896 1.13361 0.954923 459520
1.88665 1.11039 0.958497 459520
1.91043 1.08451 0.960278 459779
1.93416 1.05869 0.962056 525315
1.95786 1.03291 0.963831 656387
2.00511 1.00998 0.967372 328448
2.00511 0.981495 0.967372 328448
2.02868 0.955858 0.969138 459776
2.02868 0.927399 0.969138 263170
2.02868 0.898939 0.969138 393988
2.07567 0.876317 0.972658 328449
2.07567 0.84791 0.972658 394242
2.09911 0.822465 0.974414 262914
2.09911 0.794083 0.974414 328192
2.07567 0.762688 0.972658 590850
2.09911 0.737321 0.974414 852736
2.07567 0.705873 0.972658 459776
2.07567 0.677466 0.972658 263168
2.07567 0.649059 0.972658 459777
2.09911 0.623795 0.974414 459520
2.07567 0.592244 0.972658 459776
2.0522 0.560636 0.970899 263171
2.0522 0.532202 0.970899 262912
2.02868 0.500511 0.969138 787200
2.00511 0.468761 0.967372 721924
1.98151 0.436952 0.965603 852737
1.98151 0.408441 0.965603 721920
1.95786 0.376548 0.963831 591107
1.93416 0.344597 0.962056 394242
1.91043 0.312587 0.960278 459520
1.86282 0.277034 0.956711 721152
1.83896 0.244873 0.954923 656386
1.79109 0.209096 0.951336 657157
0.331898 3.05672 0.849935 590592
0.438157 3.03045 0.859997 525314
0.490977 3.00232 0.864999 656385
0.596007 2.97642 0.874946 460035
0.67425 2.94963 0.882355 525314
0.726161 2.92191 0.887271 525315
0.803656 2.89541 0.89461 328707
0.829389 2.86676 0.897048 460035
0.880707 2.83935 0.901907 526086
0.906293 2.81085 0.90433 656900
0.93183 2.78239 0.906748 328964
0.957319 2.75399 0.909162 263170
0.982759 2.72565 0.911572 263172
1.00815 2.69736 0.913976 263170
1.03349 2.66912 0.916376 459520
1.08404 2.61281 0.921163 525056
1.08404 2.58333 0.921163 721921
1.08404 2.55384 0.921163 788225
1.10924 2.52582 0.923549 722176
1.10924 2.49637 0.923549 525315
1.13439 2.46843 0.925931 459520
1.15949 2.44054 0.928308 263168
1.15949 2.41114 0.928308 591105
1.15949 2.38174 0.928308 656128
1.18455 2.35396 0.930681 918528
1.18455 2.32459 0.930681 918528
1.15949 2.29354 0.928308 984064
1.15949 2.26414 0.928308 591108
1.18455 2.23647 0.930681 460035
1.20956 2.20886 0.93305 459521
1.18455 2.17773 0.930681 525056
1.20956 2.15017 0.93305 459776
1.20956 2.12082 0.93305 590848
1.18455 2.08961 0.930681 263424
1.15949 2.05834 0.928308 263171
1.15949 2.02894 0.928308 590849
1.15949 1.99955 0.928308 656384
1.18455 1.97213 0.930681 459520
1.15949 1.94075 0.928308 394240
1.13439 1.90931 0.925931 394241
1.10924 1.87781 0.923549 459520
1.10924 1.84835 0.923549 656128
1.03349 1.78295 0.916376 525316
1.00815 1.75122 0.913976 525056
0.982759 1.71942 0.911572 787456
0.93183 1.68529 0.906748 328704
0.93183 1.65564 0.906748 394241
0.93183 1.62599 0.906748 197378
0.93183 1.59634 0.906748 263171
0.957319 1.56907 0.909162 459524
1.00815 1.54425 0.913976 393987
1.10924 1.49489 0.923549 262400
1.18455 1.47281 0.930681 459521
1.25944 1.45085 0.937773 459776
1.30913 1.42653 0.942479 328193
1.35864 1.4023 0.947167 459264
1.40796 1.37817 0.951838 459520
1.4571 1.35412 0.956492 262400
1.50605 1.33017 0.961127 393984
1.53046 1.30373 0.963438 591620
1.60341 1.28252 0.970348 394242
1.62764 1.25623 0.972642 459522
1.65182 1.22998 0.974932 459521
1.7241 1.20908 0.981776 263171
1.74811 1.18297 0.98405 262915
1.79598 1.1596 0.988584 263170
1.81985 1.13361 0.990845 459520
1.86747 1.11039 0.995353 263171
1.86747 1.08177 0.995353 262915
1.9149 1.05869 0.999845 525314
1.96217 1.03569 1.00432 525056
1.96217 1.00718 1.00432 460288
1.98573 0.981495 1.00655 459776
2.00926 0.955858 1.00878 460033
2.03274 0.930268 1.011 263168
2.05618 0.904724 1.01322 263424
2.05618 0.876317 1.01322 459520
2.03274 0.844968 1.011 459776
2.05618 0.819502 1.01322 197632
2.05618 0.791095 1.01322 197632
2.07957 0.765702 1.01544 459521
2.10292 0.740355 1.01765 525056
2.07957 0.708939 1.01544 459522
2.07957 0.680558 1.01544 328449
2.07957 0.652177 1.01544 394241
2.07957 0.623795 1.01544 459264
2.07957 0.595414 1.01544 656128
2.05618 0.563837 1.01322 262912
2.03274 0.532202 1.011 459776
2.00926 0.500511 1.00878 590849
1.98573 0.468761 1.00655 460036
1.96217 0.436952 1.00432 263171
1.96217 0.408441 1.00432 394241
1.96217 0.37993 1.00432 590849
1.93856 0.348011 1.00209 459523
1.89121 0.312587 0.997602 984067
1.86747 0.280519 0.995353 918272
1.81985 0.244873 0.990845 393984
1.79598 0.212654 0.988584 263170
0.421187 3.03045 0.868434 787457
0.500179 3.00336 0.877483 394244
0.578714 2.97642 0.886479 459780
0.630819 2.94856 0.892448 525572
0.734429 2.92301 0.904317 263172
0.760208 2.89428 0.90727 263170
0.785937 2.86561 0.910216 262915
0.837248 2.83818 0.916094 590852
0.888363 2.81085 0.921949 526086
0.913848 2.78239 0.924869 722437
0.939284 2.75399 0.927783 656384
0.964672 2.72565 0.930691 590850
0.964672 2.69605 0.930691 394242
1.0153 2.66912 0.936491 459520
1.09089 2.55528 0.945149 525315
1.09089 2.52582 0.945149 656642
1.09089 2.49637 0.945149 656385
1.11599 2.46843 0.948025 459520
1.11599 2.439 0.948025 459776
1.11599 2.40957 0.948025 590850
1.14104 2.38174 0.950894 525315
1.16605 2.35396 0.953759 984321
1.16605 2.32459 0.953759 656640
1.16605 2.29522 0.953759 525568
1.14104 2.26414 0.950894 722176
1.16605 2.23647 0.953759 787969
1.16605 2.2071 0.953759 656642
1.14104 2.17594 0.950894 525312
1.16605 2.14836 0.953759 721665
1.16605 2.11899 0.953759 460291
1.16605 2.08961 0.953759 263684
1.11599 2.05644 0.948025 328964
1.11599 2.02702 0.948025 459521
1.14104 1.99955 0.950894 459776
1.14104 1.97015 0.950894 459521
1.11599 1.93874 0.948025 459776
1.11599 1.90931 0.948025 656385
1.11599 1.87988 0.948025 459520
1.09089 1.84835 0.945149 459776
1.06574 1.81677 0.942269 590848
1.0153 1.78295 0.936491 459521
0.990012 1.75122 0.933594 459521
0.964672 1.71942 0.930691 459777
0.913848 1.68529 0.924869 591105
0.913848 1.65564 0.924869 394241
0.888363 1.62366 0.921949 393472
0.913848 1.59634 0.924869 262914
0.939284 1.56907 0.927783 393985
0.990012 1.54425 0.933594 262912
1.0153 1.5171 0.936491 262914
1.09089 1.49489 0.945149 262656
1.14104 1.47035 0.950894 197378
1.19101 1.44591 0.956618 459522
1.2656 1.42404 0.965163 197121
1.33978 1.4023 0.97366 328192
1.36441 1.37565 0.976482 328192
1.43804 1.35412 0.984916 459522
1.46249 1.32761 0.987716 197378
1.51125 1.30373 0.993301 460034
1.55983 1.27993 0.998866 459520
1.60823 1.25623 1.00441 525056
1.65645 1.23261 1.00993 590596
1.68049 1.20643 1.01269 459523
1.72845 1.18297 1.01818 459522
1.77623 1.1596 1.02365 459520
1.82383 1.13631 1.02911 721408
1.84756 1.11039 1.03183 459776
1.8949 1.08725 1.03725 656642
1.8949 1.05869 1.03725 656384
1.91851 1.03291 1.03995 525056
1.94207 1.00718 1.04265 262915
1.96559 0.981495 1.04535 459520
2.0125 0.958701 1.05072 459520
2.0125 0.930268 1.05072 197376
2.03589 0.904724 1.0534 262912
2.03589 0.876317 1.0534 394241
2.05923 0.850846 1.05607 262912
2.03589 0.819502 1.0534 263171
2.05923 0.794083 1.05607 262913
2.03589 0.762688 1.0534 394242
2.03589 0.734281 1.0534 394242
2.03589 0.705873 1.0534 263168
2.05923 0.680558 1.05607 263168
2.05923 0.652177 1.05607 328707
2.05923 0.623795 1.05607 459521
2.03589 0.592244 1.0534 393984
2.0125 0.560636 1.05072 328448
1.98906 0.52897 1.04804 394240
1.96559 0.497246 1.04535 787456
1.96559 0.468761 1.04535 460288
1.94207 0.436952 1.04265 721921
1.94207 0.408441 1.04265 459520
1.91851 0.376548 1.03995 459520
1.87126 0.341177 1.03454 525828
1.84756 0.309135 1.03183 656385
1.84756 0.280519 1.03183 656384
1.82383 0.248391 1.02911 393984
1.77623 0.212654 1.02365 197121
0.2717 3.05573 0.858736 459521
0.377687 3.02944 0.87299 590592
0.509019 3.00439 0.890653 328450
0.587211 2.97747 0.901169 394244
0.613176 2.94856 0.904661 656900
0.664953 2.9208 0.911625 919299
0.716533 2.89316 0.918562 394241
0.767914 2.86561 0.925472 393984
0.8191 2.83818 0.932356 263170
0.84462 2.80964 0.935788 460550
0.8191 2.7787 0.932356 657157
0.920887 2.75399 0.946045 459520
0.946213 2.72565 0.949452 262915
0.946213 2.69605 0.949452 394242
0.996721 2.66912 0.956244 262912
0.996721 2.63958 0.956244 394240
0.996721 2.61004 0.956244 394241
1.07212 2.55528 0.966385 328705
1.07212 2.52582 0.966385 263427
1.09716 2.49785 0.969753 394499
1.09716 2.46843 0.969753 459520
1.09716 2.439 0.969753 852736
1.09716 2.40957 0.969753 459520
1.09716 2.38014 0.969753 656128
1.12216 2.35234 0.973114 721408
1.12216 2.32294 0.973114 918528
1.1471 2.29522 0.976469 787457
1.12216 2.26414 0.973114 525056
1.12216 2.23474 0.973114 459520
1.1471 2.2071 0.976469 722176
1.1471 2.17773 0.976469 656128
1.12216 2.14654 0.973114 787968
1.12216 2.11714 0.973114 263936
1.12216 2.08774 0.973114 329218
1.12216 2.05834 0.973114 460036
1.172 2.03279 0.979818 459777
1.1471 2.0015 0.976469 590592
1.09716 1.96816 0.969753 459520
1.09716 1.93874 0.969753 459776
1.09716 1.90931 0.969753 590848
1.07212 1.87781 0.966385 722176
1.04704 1.84625 0.963012 525056
0.971491 1.78078 0.952851 394242
0.920887 1.7468 0.946045 787456
0.920887 1.71718 0.946045 525313
0.895513 1.68529 0.942633 459776
0.87009 1.65334 0.939214 328705
0.84462 1.62132 0.935788 263171
0.87009 1.59398 0.939214 262915
0.895513 1.56668 0.942633 328449
0.946213 1.54185 0.949452 328192
1.09716 1.49733 0.969753 328192
1.1471 1.47281 0.976469 459522
1.19685 1.44838 0.98316 459521
1.22165 1.42156 0.986496 525056
1.32041 1.4023 0.999777 459520
1.36951 1.37817 1.00638 656384
1.39399 1.35159 1.00967 459520
1.46716 1.33017 1.01951 393985
1.49145 1.30373 1.02278 525315
1.53992 1.27993 1.0293 590849
1.56408 1.25362 1.03255 328448
1.6363 1.23261 1.04226 459520
1.66029 1.20643 1.04549 263170
1.70812 1.18297 1.05192 459522
1.75579 1.1596 1.05833 262913
1.77955 1.13361 1.06153 918272
1.82695 1.11039 1.0679 590849
1.85058 1.08451 1.07108 459779
1.87417 1.05869 1.07425 460035
1.89772 1.03291 1.07742 787716
1.94469 1.00998 1.08374 459521
1.9681 0.984317 1.08689 459521
1.9681 0.955858 1.08689 459520
1.99148 0.930268 1.09003 263168
2.0381 0.907609 1.0963 197633
2.06135 0.882133 1.09943 263169
2.0381 0.850846 1.0963 263168
2.01481 0.819502 1.09317 197378
2.0381 0.794083 1.0963 263169
2.0381 0.765702 1.0963 328964
2.01481 0.734281 1.09317 262915
2.01481 0.705873 1.09317 328965
2.0381 0.680558 1.0963 263172
2.0381 0.652177 1.0963 263171
2.0381 0.623795 1.0963 722176
2.0381 0.595414 1.0963 459522
2.01481 0.563837 1.09317 262912
1.9681 0.52897 1.08689 328448
1.9681 0.500511 1.08689 459521
1.94469 0.468761 1.08374 525315
1.92122 0.436952 1.08058 656128
1.92122 0.408441 1.08058 525568
1.89772 0.376548 1.07742 394241
1.87417 0.344597 1.07425 263172
1.82695 0.309135 1.0679 525060
1.80327 0.277034 1.06472 656387
1.77955 0.244873 1.06153 459522
1.73198 0.209096 1.05513 197378
0.17498 3.05276 0.851572 394242
0.413011 3.03146 0.888356 787457
0.465343 3.00336 0.896443 918272
0.543465 2.97642 0.908516 459523
0.595295 2.94856 0.916526 459780
0.646926 2.9208 0.924504 525572
0.724002 2.89428 0.936416 459777
0.775141 2.86676 0.944318 459777
0.800637 2.83818 0.948259 460035
0.800637 2.80844 0.948259 591108
0.851482 2.78117 0.956116 460551
0.851482 2.75149 0.956116 460548
0.876833 2.72309 0.960033 459777
0.902135 2.69475 0.963943 459776
0.977754 2.66912 0.975629 394240
0.977754 2.63958 0.975629 394242
0.977754 2.61004 0.975629 459776
1.02793 2.55384 0.983384 591360
1.05294 2.52582 0.987249 591107
1.05294 2.49637 0.987249 263169
1.05294 2.46691 0.987249 459520
1.07791 2.439 0.991108 459776
1.10283 2.41114 0.994959 394241
1.07791 2.38014 0.991108 329217
1.10283 2.35234 0.994959 722176
1.12771 2.32459 0.998803 721920
1.10283 2.29354 0.994959 590849
1.10283 2.26414 0.994959 525313
1.10283 2.23474 0.994959 460033
1.10283 2.20534 0.994959 459520
1.12771 2.17773 0.998803 525056
1.07791 2.14473 0.991108 525313
1.07791 2.1153 0.991108 328960
1.10283 2.08774 0.994959 263168
1.07791 2.05644 0.991108 525056
1.07791 2.02702 0.991108 787200
1.10283 1.99955 0.994959 852480
1.07791 1.96816 0.991108 656384
1.05294 1.93672 0.987249 656128
1.02793 1.90522 0.983384 328707
1.02793 1.87573 0.983384 394240
1.02793 1.84625 0.983384 459520
0.977754 1.81249 0.975629 394241
0.92739 1.77861 0.967847 460035
0.92739 1.74901 0.967847 656898
0.902135 1.71718 0.963943 460288
0.902135 1.68756 0.963943 459521
0.851482 1.65334 0.956116 590850
0.826084 1.62132 0.952191 262915
0.851482 1.59398 0.956116 197378
0.876833 1.56668 0.960033 394241
0.92739 1.54185 0.967847 459520
0.977754 1.5171 0.975629 655872
1.05294 1.49489 0.987249 328192
1.10283 1.47035 0.994959 131328
1.15254 1.44591 1.00264 394241
1.25138 1.42653 1.01791 656128
1.30052 1.4023 1.02551 393472
1.34948 1.37817 1.03308 656128
1.37389 1.35159 1.03685 459522
1.39826 1.32505 1.04061 525315
1.47109 1.30373 1.05187 263170
1.51941 1.27993 1.05933 459523
1.59156 1.25883 1.07049 459777
1.61552 1.23261 1.07419 918272
1.63944 1.20643 1.07788 721921
1.68714 1.18297 1.08526 721154
1.71093 1.15691 1.08893 459521
1.73467 1.1309 1.0926 459520
1.80563 1.11039 1.10357 852995
1.85272 1.08725 1.11084 721665
1.85272 1.05869 1.11084 459520
1.8762 1.03291 1.11447 329217
1.89964 1.00718 1.11809 263169
1.94639 0.984317 1.12532 197120
1.94639 0.955858 1.12532 263170
1.94639 0.927399 1.12532 459777
1.94639 0.898939 1.12532 263172
1.96969 0.873401 1.12892 394242
1.99296 0.84791 1.13252 197633
2.01619 0.822465 1.1361 328448
1.99296 0.791095 1.13252 263168
1.99296 0.762688 1.13252 460035
1.99296 0.734281 1.13252 525056
1.99296 0.705873 1.13252 459520
1.99296 0.677466 1.13252 131840
1.99296 0.649059 1.13252 263171
1.99296 0.620651 1.13252 459776
1.99296 0.592244 1.13252 459521
1.99296 0.563837 1.13252 459521
1.96969 0.532202 1.12892 590592
1.94639 0.500511 1.12532 459521
1.94639 0.472051 1.12532 459779
1.92303 0.440275 1.12171 263170
1.8762 0.405086 1.11447 591105
1.85272 0.373161 1.11084 459776
1.85272 0.344597 1.11084 525316
1.8292 0.312587 1.10721 525574
1.78202 0.277034 1.09992 262915
1.75837 0.244873 1.09626 197379
1.71093 0.209096 1.08893 197379
0.26419 3.05672 0.873355 459520
0.369331 3.03045 0.891724 525056
0.447653 3.00336 0.905407 262914
0.525523 2.97642 0.919011 459523
0.577186 2.94856 0.928037 984579
0.654308 2.92191 0.94151 918787
0.679918 2.89316 0.945985 459521
0.730988 2.86561 0.954907 263427
0.756451 2.837 0.959355 459777
0.80723 2.80964 0.968226 525315
0.832546 2.78117 0.972649 328964
0.857815 2.75274 0.977064 525828
0.857815 2.72309 0.977064 394242
0.883036 2.69475 0.98147 459521
0.933334 2.66779 0.990257 263168
0.95841 2.63958 0.994638 263424
0.95841 2.61004 0.994638 459776
0.95841 2.58051 0.994638 459776
1.00842 2.55384 1.00338 459776
1.00842 2.52436 1.00338 460033
1.00842 2.49488 1.00338 591360
1.03336 2.46691 1.00773 590848
1.05825 2.439 1.01208 721920
1.05825 2.40957 1.01208 525314
1.05825 2.38014 1.01208 722176
1.05825 2.35072 1.01208 263168
1.05825 2.32129 1.01208 525568
1.05825 2.29186 1.01208 525313
1.05825 2.26243 1.01208 459520
1.05825 2.23301 1.01208 984066
1.08309 2.20534 1.01642 525057
1.08309 2.17594 1.01642 656384
1.08309 2.14654 1.01642 721920
1.08309 2.11714 1.01642 984065
1.05825 2.08587 1.01208 525313
1.03336 2.05454 1.00773 328707
1.05825 2.02702 1.01208 525057
1.08309 1.99955 1.01642 459520
1.08309 1.97015 1.01642 590848
1.05825 1.93874 1.01208 459776
1.03336 1.90726 1.00773 459776
1.00842 1.87573 1.00338 459776
1.00842 1.84625 1.00338 656384
0.95841 1.81249 0.994638 459776
0.933334 1.78078 0.990257 197633
0.908209 1.74901 0.985868 459776
0.857815 1.71494 0.977064 591105
0.832546 1.68302 0.972649 656387
0.832546 1.65334 0.972649 263171
0.832546 1.62366 0.972649 197377
0.832546 1.59398 0.972649 197121
0.883036 1.56907 0.98147 393984
0.908209 1.54185 0.985868 328192
0.95841 1.5171 0.994638 459522
1.03336 1.49489 1.00773 525056
1.08309 1.47035 1.01642 262400
1.15733 1.44838 1.02939 459520
1.20659 1.42404 1.038 852480
1.25567 1.3998 1.04657 524800
1.32894 1.37817 1.05937 853508
1.35327 1.35159 1.06362 656386
1.4018 1.32761 1.0721 656132
1.45015 1.30373 1.08055 459777
1.49832 1.27993 1.08896 787714
1.52234 1.25362 1.09316 721920
1.57024 1.22998 1.10153 393984
1.59412 1.20378 1.1057 459521
1.66551 1.18297 1.11817 459521
1.68922 1.15691 1.12231 263172
1.7365 1.13361 1.13057 328192
1.76008 1.10766 1.13469 459779
1.78361 1.08177 1.1388 328707
1.83055 1.05869 1.147 525056
1.85396 1.03291 1.15109 197633
1.87732 1.00718 1.15517 459776
1.92392 0.984317 1.16332 656128
1.90064 0.95301 1.15925 263170
1.92392 0.927399 1.16332 263169
1.94715 0.901834 1.16737 459520
1.97034 0.876317 1.17143 393984
1.97034 0.84791 1.17143 459777
1.97034 0.819502 1.17143 262913
1.97034 0.791095 1.17143 197377
1.97034 0.762688 1.17143 591107
1.97034 0.734281 1.17143 786944
1.97034 0.705873 1.17143 721920
1.97034 0.677466 1.17143 459520
1.97034 0.649059 1.17143 459520
1.94715 0.617502 1.16737 459521
1.94715 0.589069 1.16737 459777
1.97034 0.563837 1.17143 328448
1.94715 0.532202 1.16737 262912
1.92392 0.500511 1.16332 525315
1.92392 0.472051 1.16332 525057
1.87732 0.436952 1.15517 787200
1.85396 0.405086 1.15109 656384
1.85396 0.376548 1.15109 721920
1.80711 0.341177 1.14291 459522
1.80711 0.312587 1.14291 459523
1.78361 0.280519 1.1388 393984
1.7365 0.244873 1.13057 327936
1.68922 0.209096 1.12231 197377
0.246992 3.05672 0.878374 262913
0.351752 3.03045 0.898803 590849
0.403828 3.00232 0.908958 525314
0.507377 2.97642 0.929152 721923
0.558854 2.94856 0.93919 984328
0.610132 2.9208 0.94919 591620
0.686681 2.89428 0.964118 459520
0.712099 2.86561 0.969074 590850
0.73747 2.837 0.974022 591107
0.762791 2.80844 0.97896 459776
0.762791 2.7787 0.97896 657157
0.838467 2.75274 0.993717 787714
0.838467 2.72309 0.993717 591107
0.888678 2.69605 1.00351 787457
0.913711 2.66779 1.00839 852737
0.938697 2.63958 1.01326 918273
0.938697 2.61004 1.01326 721665
1.01337 2.55528 1.02783 590848
0.988528 2.52436 1.02298 525568
0.988528 2.49488 1.02298 459776
0.988528 2.46539 1.02298 525313
0.988528 2.43591 1.02298 394497
1.01337 2.408 1.02783 459777
1.03817 2.38014 1.03266 525056
1.06292 2.35234 1.03749 525056
1.03817 2.32129 1.03266 590592
1.03817 2.29186 1.03266 787969
1.06292 2.26414 1.03749 459776
1.06292 2.23474 1.03749 394241
1.06292 2.20534 1.03749 459520
1.06292 2.17594 1.03749 590848
1.06292 2.14654 1.03749 459776
1.03817 2.1153 1.03266 394240
1.03817 2.08587 1.03266 459520
1.03817 2.05644 1.03266 393984
1.03817 2.02702 1.03266 852736
1.01337 1.99563 1.02783 459776
1.03817 1.96816 1.03266 656128
1.01337 1.93672 1.02783 524800
0.988528 1.90522 1.02298 918528
0.988528 1.87573 1.02298 787456
0.938697 1.81249 1.01326 656640
0.888678 1.77861 1.00351 459777
0.863596 1.7468 0.998618 525056
0.863596 1.71718 0.998618 460288
0.813289 1.68302 0.988807 460033
0.788064 1.65103 0.983889 394499
0.788064 1.62132 0.983889 459524
0.813289 1.59398 0.988807 393987
0.838467 1.56668 0.993717 393987
0.888678 1.54185 1.00351 459520
0.938697 1.5171 1.01326 459777
0.988528 1.49245 1.02298 393984
1.06292 1.47035 1.03749 393472
1.11228 1.44591 1.04711 262915
1.18598 1.42404 1.06149 590592
1.25926 1.4023 1.07578 328192
1.28359 1.37565 1.08052 590592
1.35633 1.35412 1.09471 263170
1.40459 1.33017 1.10412 197632
1.42866 1.30373 1.10881 591105
1.50058 1.28252 1.12284 262915
1.52447 1.25623 1.12749 394242
1.57211 1.23261 1.13678 263171
1.59586 1.20643 1.14142 459521
1.61957 1.1803 1.14604 459521
1.66686 1.15691 1.15526 459523
1.71397 1.13361 1.16445 459520
1.73746 1.10766 1.16903 459522
1.78432 1.08451 1.17817 263170
1.80768 1.05869 1.18272 263168
1.831 1.03291 1.18727 459777
1.85428 1.00718 1.19181 459520
1.87751 0.981495 1.19634 197376
1.9007 0.955858 1.20087 459520
1.9007 0.927399 1.20087 590849
1.9007 0.898939 1.20087 525314
1.9007 0.87048 1.20087 328707
1.92385 0.844968 1.20538 525056
1.92385 0.816535 1.20538 393984
1.92385 0.788101 1.20538 459520
1.94696 0.762688 1.20989 787714
1.94696 0.734281 1.20989 459520
1.94696 0.705873 1.20989 393984
1.94696 0.677466 1.20989 263168
1.94696 0.649059 1.20989 459520
1.92385 0.617502 1.20538 721921
1.94696 0.592244 1.20989 459521
1.92385 0.560636 1.20538 328192
1.92385 0.532202 1.20538 459520
1.9007 0.500511 1.20087 656386
1.87751 0.468761 1.19634 459524
1.85428 0.436952 1.19181 459779
1.85428 0.408441 1.19181 459520
1.831 0.376548 1.18727 459520
1.80768 0.344597 1.18272 328448
1.76091 0.309135 1.1736 459520
1.73746 0.277034 1.16903 197121
1.71397 0.244873 1.16445 656128
1.69044 0.212654 1.15986 197376
0.229698 3.05672 0.883054 459520
0.334038 3.03045 0.905536 590849
0.385904 3.00232 0.916712 459779
0.463328 2.97536 0.933395 984321
0.514696 2.94748 0.944463 919300
0.565866 2.9197 0.955489 984067
0.61684 2.89203 0.966473 263427
0.667619 2.86446 0.977414 394241
0.718204 2.837 0.988314 459521
0.718204 2.80724 0.988314 590850
0.768595 2.77994 0.999172 656899
0.793718 2.75149 1.00458 657156
0.843823 2.72437 1.01538 328705
0.868804 2.69605 1.02076 459776
0.893737 2.66779 1.02614 394240
0.893737 2.63823 1.02614 459520
0.918622 2.61004 1.0315 852736
0.918622 2.58051 1.0315 459776
0.968253 2.49488 1.04219 525314
0.992997 2.46691 1.04752 263169
0.992997 2.43746 1.04752 656385
0.968253 2.40643 1.04219 853249
0.992997 2.37855 1.04752 787456
1.0177 2.35072 1.05285 525313
1.0177 2.32129 1.05285 853248
0.992997 2.29018 1.04752 721920
0.992997 2.26073 1.04752 787968
1.0177 2.23301 1.05285 787456
1.04235 2.20534 1.05816 918528
1.04235 2.17594 1.05816 656384
1.0177 2.14473 1.05285 394241
1.04235 2.11714 1.05816 263168
1.04235 2.08774 1.05816 328448
1.0177 2.05644 1.05285 459777
0.992997 2.02508 1.04752 459777
0.992997 1.99563 1.04752 459776
0.992997 1.96617 1.04752 459520
1.0177 1.93874 1.05285 656384
0.968253 1.90522 1.04219 525313
0.918622 1.84203 1.0315 787200
0.893737 1.81035 1.02614 1049600
0.868804 1.77861 1.02076 721920
0.843823 1.7468 1.01538 852737
0.793718 1.7127 1.00458 525313
0.793718 1.68302 1.00458 263427
0.793718 1.65334 1.00458 263169
0.768595 1.62132 0.999172 460035
0.793718 1.59398 1.00458 459779
0.818794 1.56668 1.00999 459777
0.868804 1.54185 1.02076 262656
0.918622 1.5171 1.0315 197377
0.992997 1.49489 1.04752 262913
1.04235 1.47035 1.05816 459522
1.11602 1.44838 1.07403 590593
1.16491 1.42404 1.08457 459522
1.21361 1.3998 1.09506 196865
1.28632 1.37817 1.11073 459520
1.33457 1.35412 1.12112 459777
1.35863 1.32761 1.12631 263168
1.40661 1.30373 1.13665 263170
1.45441 1.27993 1.14695 394244
1.50204 1.25623 1.15721 459522
1.52578 1.22998 1.16232 721666
1.57314 1.20643 1.17253 590852
1.62033 1.18297 1.1827 525056
1.66734 1.1596 1.19283 262913
1.71418 1.13631 1.20292 459520
1.73753 1.11039 1.20795 459779
1.78411 1.08725 1.21799 721921
1.78411 1.05869 1.21799 787714
1.80734 1.03291 1.22299 525313
1.83052 1.00718 1.22799 394241
1.85366 0.981495 1.23297 459777
1.87676 0.955858 1.23795 590592
1.87676 0.927399 1.23795 459776
1.89982 0.901834 1.24292 262912
1.92283 0.876317 1.24788 394241
1.92283 0.84791 1.24788 263168
1.94581 0.822465 1.25283 197632
1.94581 0.794083 1.25283 197632
1.92283 0.762688 1.24788 328707
1.92283 0.734281 1.24788 263172
1.92283 0.705873 1.24788 263171
1.92283 0.677466 1.24788 197378
1.92283 0.649059 1.24788 525057
1.92283 0.620651 1.24788 590592
1.89982 0.589069 1.24292 656128
1.89982 0.560636 1.24292 459522
1.89982 0.532202 1.24292 459520
1.87676 0.500511 1.23795 459520
1.85366 0.468761 1.23297 459780
1.83052 0.436952 1.22799 525316
1.83052 0.408441 1.22799 394240
1.80734 0.376548 1.22299 459520
1.76084 0.341177 1.21297 590849
1.73753 0.309135 1.20795 525056
1.71418 0.277034 1.20292 394242
1.69078 0.244873 1.19788 131840
1.64385 0.209096 1.18777 197636
0.212317 3.05672 0.887393 525059
0.342038 3.03146 0.918022 459520
0.393575 3.00336 0.93019 263168
0.444913 2.97536 0.942311 394244
0.52155 2.94856 0.960407 590852
0.572396 2.9208 0.972412 525057
0.623048 2.89316 0.984371 590592
0.6483 2.86446 0.990334 459520
0.698661 2.837 1.00222 459777
0.723769 2.80844 1.00815 460292
0.748829 2.77994 1.01407 853765
0.773842 2.75149 1.01997 656385
0.798807 2.72309 1.02587 656128
0.823724 2.69475 1.03175 328707
0.873418 2.66779 1.04349 394241
0.873418 2.63823 1.04349 459520
0.898193 2.58051 1.04934 459779
0.947604 2.52436 1.061 590849
0.972239 2.49637 1.06682 787456
0.947604 2.46539 1.061 525568
0.947604 2.43591 1.061 263168
0.972239 2.408 1.06682 460544
0.972239 2.37855 1.06682 525568
0.972239 2.34909 1.06682 656128
0.972239 2.31964 1.06682 459520
0.996828 2.29186 1.07262 721665
0.996828 2.26243 1.07262 786945
0.972239 2.23127 1.06682 656129
0.996828 2.20358 1.07262 590592
0.972239 2.17236 1.06682 918528
0.996828 2.14473 1.07262 983808
0.996828 2.1153 1.07262 852736
0.996828 2.08587 1.07262 590592
0.996828 2.05644 1.07262 459520
0.996828 2.02702 1.07262 590592
0.972239 1.99563 1.06682 590592
0.972239 1.96617 1.06682 459521
0.972239 1.93672 1.06682 590592
0.947604 1.90522 1.061 852994
0.898193 1.84203 1.04934 459776
0.873418 1.81035 1.04349 525056
0.823724 1.77643 1.03175 656385
0.798807 1.74459 1.02587 656899
0.773842 1.7127 1.01997 591619
0.773842 1.68302 1.01997 656643
0.748829 1.65103 1.01407 328448
0.748829 1.62132 1.01407 459521
0.773842 1.59398 1.01997 262913
0.773842 1.5643 1.01997 459522
0.823724 1.53944 1.03175 328450
0.898193 1.5171 1.04934 262657
0.972239 1.49489 1.06682 66305
1.02137 1.47035 1.07842 262913
1.07032 1.44591 1.08998 459522
1.16766 1.42653 1.11296 262912
1.21605 1.4023 1.12439 328192
1.26427 1.37817 1.13577 263168
1.3123 1.35412 1.14711 263168
1.36016 1.33017 1.15841 262912
1.38402 1.30373 1.16404 459777
1.43161 1.27993 1.17528 394244
1.47903 1.25623 1.18648 328707
1.52626 1.23261 1.19763 721665
1.54982 1.20643 1.20319 656387
1.57333 1.1803 1.20874 721666
1.62022 1.15691 1.21981 459520
1.66693 1.13361 1.23084 394240
1.69023 1.10766 1.23634 591107
1.73669 1.08451 1.24731 590851
1.73669 1.05592 1.24731 656388
1.75985 1.03012 1.25278 262915
1.80606 1.00718 1.26369 459777
1.8291 0.981495 1.26913 328192
1.85209 0.955858 1.27456 394241
1.87505 0.930268 1.27998 459777
1.87505 0.901834 1.27998 263171
1.87505 0.873401 1.27998 197376
1.89796 0.84791 1.28539 459776
1.89796 0.819502 1.28539 590592
1.87505 0.788101 1.27998 459520
1.87505 0.759668 1.27998 787457
1.87505 0.731235 1.27998 656128
1.87505 0.702802 1.27998 525314
1.87505 0.674369 1.27998 262915
1.87505 0.645936 1.27998 459521
1.87505 0.617502 1.27998 787456
1.87505 0.589069 1.27998 721408
1.87505 0.560636 1.27998 656128
1.85209 0.52897 1.27456 656384
1.8291 0.497246 1.26913 394241
1.80606 0.465464 1.26369 525317
1.80606 0.436952 1.26369 459777
1.80606 0.408441 1.26369 459520
1.75985 0.373161 1.25278 328448
1.73669 0.341177 1.24731 262914
1.69023 0.305676 1.23634 263170
1.66693 0.273542 1.23084 197633
1.66693 0.244873 1.23084 197377
1.62022 0.209096 1.21981 131585
0.168883 3.05573 0.884718 262915
0.246641 3.02843 0.904697 459776
0.375236 3.00336 0.937738 656385
0.426326 2.97536 0.950865 525313
0.502594 2.94856 0.970462 591107
0.527918 2.9197 0.976968 459781
0.578421 2.89203 0.989944 459777
0.628732 2.86446 1.00287 393987
0.678849 2.837 1.01575 525317
0.703836 2.80844 1.02217 460035
0.728775 2.77994 1.02858 460292
0.728775 2.75023 1.02858 591107
0.753666 2.72181 1.03497 590852
0.803309 2.69475 1.04773 459776
0.828059 2.66646 1.05409 459777
0.828059 2.63686 1.05409 459777
0.877417 2.61004 1.06677 590849
0.877417 2.58051 1.06677 459777
0.877417 2.55097 1.06677 263680
0.92659 2.49488 1.0794 197888
0.92659 2.46539 1.0794 459776
0.92659 2.43591 1.0794 656384
0.92659 2.40643 1.0794 918528
0.951106 2.37855 1.0857 656128
0.951106 2.34909 1.0857 459520
0.951106 2.31964 1.0857 459776
0.951106 2.29018 1.0857 721665
0.951106 2.26073 1.0857 656385
0.951106 2.23127 1.0857 459521
0.975576 2.20358 1.09199 459776
0.975576 2.17415 1.09199 656128
0.951106 2.1429 1.0857 459520
0.975576 2.1153 1.09199 459776
0.975576 2.08587 1.09199 722176
0.951106 2.05454 1.0857 656385
0.951106 2.02508 1.0857 656384
0.951106 1.99563 1.0857 656128
0.92659 1.96418 1.0794 263168
0.877417 1.93065 1.06677 263171
0.877417 1.90111 1.06677 328707
0.877417 1.84203 1.06677 525312
0.852762 1.81035 1.06043 459520
0.803309 1.77643 1.04773 656128
0.803309 1.7468 1.04773 459522
0.778511 1.71494 1.04136 525316
0.728775 1.68074 1.02858 459779
0.703836 1.64872 1.02217 394244
0.703836 1.61899 1.02217 328192
0.728775 1.59162 1.02858 394242
0.753666 1.5643 1.03497 262914
0.803309 1.53944 1.04773 196864
0.951106 1.49489 1.0857 721152
1 1.47035 1.09826 655872
1.073 1.44838 1.11702 459521
1.12143 1.42404 1.12946 262914
1.19374 1.4023 1.14804 459521
1.24173 1.37817 1.16037 786944
1.28953 1.35412 1.17266 852480
1.33715 1.33017 1.18489 655872
1.3609 1.30373 1.19099 459522
1.40826 1.27993 1.20316 459524
1.45545 1.25623 1.21529 328449
1.50246 1.23261 1.22736 459521
1.54929 1.20908 1.2394 591107
1.57264 1.18297 1.2454 459523
1.61922 1.1596 1.25737 459520
1.66563 1.13631 1.26929 459776
1.68877 1.11039 1.27523 459520
1.68877 1.08177 1.27523 328707
1.71186 1.05592 1.28117 328705
1.75793 1.03291 1.293 394241
1.7809 1.00718 1.29891 393984
1.80383 0.981495 1.3048 328448
1.82671 0.955858 1.31068 394242
1.82671 0.927399 1.31068 656640
1.82671 0.898939 1.31068 459776
1.82671 0.87048 1.31068 590848
1.87236 0.84791 1.32241 460032
1.87236 0.819502 1.32241 262912
1.84956 0.788101 1.31655 197632
1.84956 0.759668 1.31655 263171
1.84956 0.731235 1.31655 393987
1.87236 0.705873 1.32241 197379
1.87236 0.677466 1.32241 459524
1.87236 0.649059 1.32241 525059
1.84956 0.617502 1.31655 393984
1.82671 0.585888 1.31068 393984
1.82671 0.557429 1.31068 394242
1.82671 0.52897 1.31068 263170
1.82671 0.500511 1.31068 394241
1.80383 0.468761 1.3048 263169
1.7809 0.436952 1.29891 459776
1.7809 0.408441 1.29891 459520
1.75793 0.376548 1.293 328707
1.73492 0.344597 1.28709 263427
1.68877 0.309135 1.27523 590592
1.66563 0.277034 1.26929 459521
1.64245 0.244873 1.26333 393984
1.59595 0.209096 1.25139 197636
0.15148 3.05573 0.887864 394240
0.280148 3.03045 0.923631 590850
0.331267 3.00232 0.93784 459523
0.382188 2.9743 0.951995 590850
0.483443 2.94856 0.980142 590850
0.508634 2.9197 0.987145 787457
0.558874 2.89203 1.00111 918272
0.60892 2.86446 1.01502 656128
0.633871 2.83582 1.02196 459521
0.658775 2.80724 1.02888 525828
0.70844 2.77994 1.04269 460292
0.733201 2.75149 1.04957 459777
0.757916 2.72309 1.05644 656387
0.782583 2.69475 1.0633 459777
0.831777 2.66779 1.07697 590849
0.831777 2.63823 1.07697 394242
0.807203 2.60727 1.07014 328705
0.831777 2.57909 1.07697 394241
0.856304 2.55097 1.08379 460034
0.905219 2.40643 1.09739 459520
0.905219 2.37694 1.09739 459776
0.905219 2.34746 1.09739 460033
0.929607 2.31964 1.10417 459776
0.953948 2.29186 1.11093 525314
0.953948 2.26243 1.11093 459776
0.953948 2.23301 1.11093 459520
0.929607 2.20182 1.10417 262656
0.953948 2.17415 1.11093 656128
0.953948 2.14473 1.11093 459520
0.953948 2.1153 1.11093 459776
0.929607 2.08399 1.10417 394242
0.929607 2.05454 1.10417 590850
0.929607 2.02508 1.10417 852480
0.929607 1.99563 1.10417 918272
0.929607 1.96617 1.10417 656384
0.905219 1.9347 1.09739 525057
0.856304 1.90111 1.08379 721665
0.856304 1.87157 1.08379 918528
0.856304 1.84203 1.08379 459776
0.807203 1.8082 1.07014 459776
0.782583 1.77643 1.0633 459520
0.733201 1.74238 1.04957 591620
0.733201 1.7127 1.04957 656899
0.70844 1.68074 1.04269 263171
0.70844 1.65103 1.04269 459779
0.70844 1.62132 1.04269 459520
0.683631 1.58925 1.03579 263170
0.733201 1.5643 1.04957 328965
0.807203 1.54185 1.07014 262914
0.856304 1.5171 1.08379 197635
0.929607 1.49489 1.10417 262401
0.978244 1.47035 1.11769 328449
1.05086 1.44838 1.13787 590849
1.09904 1.42404 1.15126 983808
1.14704 1.3998 1.16461 655616
1.19486 1.37565 1.1779 655872
1.26626 1.35412 1.19775 328448
1.33725 1.33272 1.21748 459521
1.36083 1.3063 1.22404 656645
1.40786 1.28252 1.23711 852737
1.45471 1.25883 1.25013 656128
1.47807 1.23261 1.25663 656128
1.50139 1.20643 1.26311 591107
1.57108 1.18563 1.28248 459521
1.59422 1.1596 1.28891 262913
1.61733 1.13361 1.29534 590849
1.64039 1.10766 1.30175 591108
1.68638 1.08451 1.31453 591108
1.68638 1.05592 1.31453 591107
1.70931 1.03012 1.32091 263171
1.7322 1.00437 1.32727 263171
1.77786 0.981495 1.33996 262912
1.77786 0.95301 1.33996 459520
1.77786 0.924524 1.33996 721920
1.82335 0.901834 1.35261 262912
1.84603 0.876317 1.35891 656384
1.84603 0.84791 1.35891 393984
1.82335 0.816535 1.35261 197377
1.82335 0.788101 1.35261 459520
1.84603 0.762688 1.35891 459520
1.84603 0.734281 1.35891 328448
1.82335 0.702802 1.35261 263171
1.82335 0.674369 1.35261 197379
1.82335 0.645936 1.35261 197633
1.80063 0.614347 1.34629 459521
1.80063 0.585888 1.34629 525315
1.80063 0.557429 1.34629 263171
1.80063 0.52897 1.34629 263171
1.80063 0.500511 1.34629 263172
1.77786 0.468761 1.33996 263427
1.75505 0.436952 1.33362 197379
1.75505 0.408441 1.33362 394242
1.7322 0.376548 1.32727 459520
1.68638 0.341177 1.31453 459522
1.6634 0.309135 1.30815 393985
1.64039 0.277034 1.30175 459521
1.61733 0.244873 1.29534 262914
1.57108 0.209096 1.28248 197632
0.159707 3.05672 0.898354 656385
0.236471 3.02944 0.921325 590849
0.31279 3.00232 0.944164 459522
0.388667 2.97536 0.96687 459779
0.439008 2.94748 0.981934 656900
0.489155 2.9197 0.996941 722182
0.53911 2.89203 1.01189 459264
0.564016 2.8633 1.01934 328448
0.613684 2.83582 1.03421 525315
0.638447 2.80724 1.04162 919299
0.663163 2.7787 1.04901 656902
0.687831 2.75023 1.05639 721665
0.712453 2.72181 1.06376 590850
0.737028 2.69344 1.07112 525315
0.761556 2.66512 1.07846 525056
0.786037 2.63686 1.08578 656384
0.810472 2.60866 1.09309 656384
0.810472 2.57909 1.09309 459521
0.883498 2.49488 1.11495 459521
0.883498 2.46539 1.11495 459520
0.883498 2.40643 1.11495 591360
0.883498 2.37694 1.11495 263424
0.883498 2.34746 1.11495 460032
0.883498 2.31798 1.11495 656384
0.883498 2.2885 1.11495 525827
0.931953 2.26243 1.12945 460288
0.907748 2.23127 1.1222 525568
0.931953 2.20358 1.12945 656384
0.907748 2.17236 1.1222 590592
0.883498 2.14108 1.11495 656640
0.907748 2.11345 1.1222 590848
0.883498 2.08211 1.11495 459777
0.883498 2.05263 1.11495 525056
0.883498 2.02315 1.11495 656128
0.907748 1.99563 1.1222 656128
0.907748 1.96617 1.1222 263170
0.883498 1.9347 1.11495 328705
0.83486 1.87157 1.10039 1049860
0.83486 1.84203 1.10039 590849
0.786037 1.8082 1.08578 262912
0.737028 1.77424 1.07112 459521
0.737028 1.74459 1.07112 656128
0.687831 1.71045 1.05639 394497
0.687831 1.68074 1.05639 263169
0.663163 1.64872 1.04901 525314
0.663163 1.61899 1.04901 459522
0.687831 1.59162 1.05639 262913
0.712453 1.5643 1.06376 262400
0.786037 1.54185 1.08578 262656
0.83486 1.5171 1.10039 459523
0.907748 1.49489 1.1222 393984
0.956111 1.47035 1.13668 197121
1.02831 1.44838 1.15828 262915
1.07622 1.42404 1.17262 393730
1.14775 1.4023 1.19403 131328
1.19521 1.37817 1.20823 459520
1.2425 1.35412 1.22238 459520
1.28961 1.33017 1.23648 459520
1.33654 1.3063 1.25052 394241
1.3833 1.28252 1.26451 262915
1.42988 1.25883 1.27845 459520
1.45311 1.23261 1.2854 459779
1.49944 1.20908 1.29927 525315
1.54559 1.18563 1.31308 459779
1.56861 1.1596 1.31997 525056
1.59158 1.13361 1.32684 459520
1.61451 1.10766 1.3337 591108
1.66024 1.08451 1.34739 459777
1.68305 1.05869 1.35421 328704
1.70581 1.03291 1.36102 263168
1.72853 1.00718 1.36782 459520
1.75121 0.981495 1.37461 459521
1.77385 0.955858 1.38138 459777
1.77385 0.927399 1.38138 263169
1.79644 0.901834 1.38815 263169
1.79644 0.873401 1.38815 394242
1.79644 0.844968 1.38815 197377
1.79644 0.816535 1.38815 131841
1.79644 0.788101 1.38815 263170
1.79644 0.759668 1.38815 459780
1.79644 0.731235 1.38815 459776
1.79644 0.702802 1.38815 263168
1.79644 0.674369 1.38815 197378
1.819 0.649059 1.3949 328449
1.79644 0.617502 1.38815 459777
1.77385 0.585888 1.38138 525057
1.77385 0.557429 1.38138 393984
1.75121 0.525731 1.37461 393984
1.75121 0.497246 1.37461 459520
1.72853 0.465464 1.36782 459777
1.72853 0.436952 1.36782 459777
1.70581 0.405086 1.36102 459776
1.68305 0.373161 1.35421 263170
1.66024 0.341177 1.34739 263169
1.6374 0.309135 1.34055 459520
1.61451 0.277034 1.3337 197378
1.59158 0.244873 1.32684 131840
1.54559 0.209096 1.31308 263171
-0.0119035 3.08126 0.851936 393984
0.116506 3.05573 0.893126 459779
0.218337 3.02944 0.92579 459776
0.294193 3.00232 0.950123 590848
0.344518 2.9743 0.966266 918787
0.419644 2.94748 0.990364 1115399
0.44459 2.91859 0.998367 918273
0.494337 2.89089 1.01432 328448
0.568601 2.86446 1.03815 852737
0.593261 2.83582 1.04606 787714
0.617874 2.80724 1.05395 853765
0.642439 2.7787 1.06183 459780
0.642439 2.74897 1.06183 459780
0.715856 2.72309 1.08538 656128
0.715856 2.69344 1.08538 459779
0.740234 2.66512 1.0932 263169
0.764567 2.63686 1.10101 263168
0.788854 2.60866 1.1088 263168
0.788854 2.57909 1.1088 263425
0.788854 2.54952 1.1088 263424
0.813094 2.52143 1.11657 263680
0.813094 2.49189 1.11657 459522
0.861438 2.43591 1.13208 459520
0.861438 2.40643 1.13208 459776
0.861438 2.37694 1.13208 656385
0.88554 2.34909 1.13981 393984
0.88554 2.31964 1.13981 262657
0.88554 2.29018 1.13981 656128
0.88554 2.26073 1.13981 590849
0.88554 2.23127 1.13981 459776
0.88554 2.20182 1.13981 459520
0.88554 2.17236 1.13981 459521
0.88554 2.1429 1.13981 984321
0.88554 2.11345 1.13981 656384
0.88554 2.08399 1.13981 459520
0.88554 2.05454 1.13981 459521
0.861438 2.02315 1.13208 918528
0.861438 1.99367 1.13208 721921
0.861438 1.96418 1.13208 394241
0.861438 1.9347 1.13208 262913
0.813094 1.90111 1.11657 263170
0.764567 1.86739 1.10101 328707
0.764567 1.8378 1.10101 525315
0.764567 1.8082 1.10101 655872
0.715856 1.77424 1.08538 721408
0.69143 1.74238 1.07755 918273
0.666958 1.71045 1.0697 459779
0.666958 1.68074 1.0697 328707
0.642439 1.64872 1.06183 525057
0.617874 1.61664 1.05395 459779
0.642439 1.58925 1.06183 459267
0.666958 1.56191 1.0697 656390
0.764567 1.54185 1.10101 328193
0.788854 1.51468 1.1088 328449
0.88554 1.49489 1.13981 655872
0.957577 1.47281 1.16292 393984
1.00537 1.44838 1.17825 263170
1.07674 1.42653 1.20114 197377
1.12409 1.4023 1.21633 262400
1.1477 1.37565 1.2239 328193
