3.96706 4.09878 -1.42557
3.9475 3.8979 -1.41939
3.9475 3.697 -1.41939
3.9475 3.4961 -1.41939
3.9475 3.2952 -1.41939
3.9475 3.0943 -1.41939
3.92791 2.89237 -1.41317
3.90829 2.6901 -1.40695
3.88862 2.48748 -1.40073
3.84921 2.28294 -1.38824
3.84921 2.08117 -1.38824
3.80965 1.87557 -1.37571
3.78982 1.67135 -1.36944
3.75005 1.46449 -1.35685
3.71014 1.25692 -1.3442
3.6701 1.04861 -1.33151
3.65002 0.842405 -1.32516
3.56936 0.626757 -1.29962
3.58958 0.425703 -1.30602
3.42684 0.194306 -1.25447
3.38579 -0.0184827 -1.24148
3.30326 -0.239702 -1.21534
4.02421 4.2997 -1.18453
4.08377 4.09873 -1.1996
4.06395 3.8982 -1.19457
4.06395 3.69764 -1.19457
4.06395 3.49709 -1.19457
4.0441 3.29587 -1.18956
4.06395 3.09598 -1.19457
4.0441 2.89441 -1.18956
4.02421 2.69249 -1.18453
3.98433 2.48885 -1.17444
3.96434 2.28605 -1.16938
3.94432 2.0829 -1.16431
3.94432 1.8813 -1.16431
3.90416 1.67553 -1.15414
3.86386 1.46904 -1.14396
3.82342 1.26184 -1.13372
3.78284 1.0539 -1.12346
3.7217 0.842405 -1.10799
3.68077 0.632817 -1.09762
3.59846 0.416047 -1.0768
3.55709 0.204593 -1.06633
3.49475 -0.0112286 -1.05056
3.41112 -0.232029 -1.0294
4.10712 4.2995 -0.949408
4.16735 4.0987 -0.960938
4.16735 3.89849 -0.960938
4.16735 3.69829 -0.960938
4.16735 3.49808 -0.960938
4.14731 3.29721 -0.9571
4.12723 3.09598 -0.953261
4.12723 2.89543 -0.953261
4.10712 2.69369 -0.949408
4.08697 2.49159 -0.945555
4.06678 2.28915 -0.941702
4.04656 2.08635 -0.937834
4.00602 1.8813 -0.93008
3.98569 1.67762 -0.926194
3.96533 1.47358 -0.922308
3.94494 1.26919 -0.918405
3.88353 1.05918 -0.906671
3.80116 0.845237 -0.890912
3.75976 0.635839 -0.883008
3.69738 0.42249 -0.871068
3.63467 0.20801 -0.859089
3.57162 -0.00761175 -0.847037
3.50824 -0.224383 -0.834918
4.2167 4.29891 -0.713929
4.25706 4.09865 -0.71921
4.2369 3.89864 -0.716568
4.2369 3.69861 -0.716568
4.2369 3.49858 -0.716568
4.2167 3.29787 -0.713929
4.2167 3.09767 -0.713929
4.2167 2.89746 -0.713929
4.17619 2.69488 -0.708628
4.17619 2.49432 -0.708628
4.13554 2.29069 -0.703321
4.11517 2.08807 -0.700647
4.09476 1.8851 -0.697992
4.05383 1.6797 -0.692638
4.03331 1.47584 -0.689955
3.99216 1.26919 -0.684579
3.99216 1.06706 -0.684579
3.93018 0.85652 -0.676465
3.86786 0.644874 -0.668323
3.78427 0.42891 -0.657387
3.72118 0.214825 -0.649149
3.63655 -0.00400066 -0.638074
3.63655 -0.209172 -0.638074
4.29202 4.29851 -0.467338
4.31227 4.09863 -0.468778
4.33249 3.89909 -0.470223
4.31227 3.69925 -0.468778
4.29202 3.49907 -0.467338
4.29202 3.29921 -0.467338
4.29202 3.09935 -0.467338
4.27174 2.89847 -0.465904
4.27174 2.69844 -0.465904
4.23106 2.49569 -0.463003
4.21067 2.29377 -0.461552
4.19024 2.09151 -0.460089
4.16978 1.88889 -0.458631
4.14928 1.68592 -0.457178
4.08757 1.4781 -0.452778
4.06693 1.27406 -0.451308
4.02554 1.06706 -0.448363
4.00479 0.862132 -0.446887
3.87953 0.641868 -0.43796
3.83748 0.432112 -0.434962
3.79529 0.221617 -0.431969
3.75294 0.0103784 -0.428948
3.6678 -0.209172 -0.422888
4.35266 4.29812 -0.214359
4.37289 4.09858 -0.214603
4.37289 3.89923 -0.214603
4.35266 3.69957 -0.214359
4.35266 3.50005 -0.214359
4.35266 3.30053 -0.214359
4.35266 3.10102 -0.214359
4.31209 2.89948 -0.213862
4.31209 2.69962 -0.213862
4.29176 2.49841 -0.213609
4.27138 2.29684 -0.213362
4.25098 2.09493 -0.213107
4.23054 1.89267 -0.212859
4.18954 1.68799 -0.212367
4.18954 1.48709 -0.212367
4.14841 1.28135 -0.211868
4.12779 1.0775 -0.211605
4.06572 0.867724 -0.210848
3.94059 0.647875 -0.209318
3.89858 0.438498 -0.208817
3.8353 0.225003 -0.208039
3.77169 0.0103784 -0.207258
3.68634 -0.209172 -0.206222
4.35773 4.29812 0.0422641
4.43836 4.0985 0.0460263
4.41826 3.89953 0.045093
4.39811 3.70021 0.0441492
4.39811 3.50103 0.0441492
4.39811 3.30186 0.0441492
4.39811 3.10268 0.0441492
4.37794 2.90251 0.0432117
4.37794 2.70316 0.0432117
4.33748 2.50111 0.0413231
4.3172 2.2999 0.0403723
4.27654 2.09663 0.0384747
4.25615 1.89455 0.0375119
4.23573 1.69211 0.0365563
4.19478 1.48709 0.0346506
4.15369 1.28135 0.0327266
4.11246 1.0749 0.0308014
4.09179 0.870512 0.0298349
3.98789 0.653862 0.024985
3.94608 0.444861 0.0230219
3.86201 0.228384 0.0190987
3.79857 0.013958 0.0161332
3.73479 -0.201606 0.0131554
4.38789 4.29773 0.303001
4.46789 4.09846 0.31147
4.44794 3.89982 0.309364
4.42795 3.70084 0.307244
4.42795 3.50201 0.307244
4.42795 3.30318 0.307244
4.42795 3.10434 0.307244
4.38789 2.90351 0.303001
4.38789 2.70433 0.303001
4.38789 2.50516 0.303001
4.34768 2.30295 0.298741
4.30734 2.10004 0.29445
4.30734 1.90018 0.29445
4.24656 1.69417 0.288017
4.22623 1.49156 0.285861
4.18547 1.28619 0.281532
4.14456 1.0801 0.277208
4.10351 0.873296 0.272843
4.06232 0.665772 0.268485
3.95871 0.448035 0.257497
3.89611 0.235128 0.250858
3.83317 0.0210967 0.244192
3.7699 -0.194068 0.237491
4.40219 4.29734 0.567379
4.48128 4.09841 0.58051
4.4418 3.89996 0.573966
4.4418 3.70147 0.573966
4.4418 3.50298 0.573966
4.4418 3.30449 0.573966
4.4418 3.106 0.573966
4.42201 2.90651 0.570671
4.40219 2.70668 0.567379
4.36244 2.50516 0.560784
4.36244 2.30599 0.560784
4.32256 2.10343 0.554165
4.32256 1.90391 0.554165
4.26247 1.69827 0.544198
4.24237 1.49601 0.540859
4.20207 1.29101 0.534158
4.16163 1.08528 0.527452
4.12105 0.87885 0.520712
4.08033 0.671696 0.513954
3.9779 0.454366 0.496952
3.91602 0.241848 0.486672
3.85381 0.0282111 0.476343
3.77034 -0.190309 0.462494
4.40031 4.29695 0.834453
4.45879 4.09838 0.847746
4.45879 3.9004 0.847746
4.43933 3.7021 0.843327
4.43933 3.50395 0.843327
4.41984 3.30514 0.83889
4.43933 3.10765 0.843327
4.40031 2.90751 0.834453
4.40031 2.70901 0.834453
4.38074 2.50919 0.830016
4.36115 2.30901 0.825563
4.32186 2.10681 0.816639
4.28243 1.90391 0.807684
4.28243 1.7044 0.807684
4.24287 1.50046 0.798681
4.20317 1.29581 0.789664
4.14337 1.08787 0.776088
4.10332 0.881619 0.766984
4.08325 0.6776 0.762425
3.98235 0.460674 0.739499
3.92139 0.248545 0.725642
3.83961 0.0317583 0.70707
3.7779 -0.18281 0.693039
3.71586 -0.398515 0.678948
4.38198 4.29656 1.10322
4.43938 4.09833 1.11987
4.42028 3.90054 1.11431
4.42028 3.70273 1.11431
4.42028 3.50492 1.11431
4.42028 3.3071 1.11431
4.42028 3.10929 1.11431
4.38198 2.90949 1.10322
4.38198 2.71134 1.10322
4.34355 2.51052 1.09206
4.34355 2.31203 1.09206
4.30498 2.11018 1.08088
4.26629 1.90764 1.06965
4.26629 1.70846 1.06965
4.20799 1.50267 1.05274
4.18849 1.30059 1.04708
4.1298 1.09303 1.03005
4.09049 0.887144 1.01866
4.03128 0.6776 1.00148
3.95185 0.46382 0.97845
3.91194 0.255219 0.966856
3.83167 0.0388346 0.943576
3.79133 -0.171612 0.931877
3.71021 -0.390642 0.908354
4.34701 4.29617 1.37261
4.40315 4.09829 1.39254
4.40315 3.90098 1.39254
4.42179 3.70398 1.39918
4.36576 3.5054 1.37927
4.36576 3.30775 1.37927
4.36576 3.11011 1.37927
4.34701 2.91148 1.37261
4.34701 2.71366 1.37261
4.30944 2.51319 1.35927
4.27173 2.31203 1.34587
4.27173 2.11354 1.34587
4.25282 1.9132 1.33916
4.21492 1.71049 1.32571
4.19592 1.50929 1.31896
4.15782 1.30536 1.30543
4.10042 1.09817 1.28504
4.04273 0.889899 1.26455
4.0041 0.683482 1.25084
3.9459 0.473226 1.23017
3.8874 0.261868 1.20939
3.80892 0.045887 1.18152
3.7497 -0.167892 1.1605
3.67026 -0.386717 1.13228
4.25867 4.29617 1.62614
4.33175 4.09826 1.65705
4.33175 3.90112 1.65705
4.33175 3.70398 1.65705
4.40434 3.50875 1.68775
4.31353 3.30905 1.64935
4.29527 3.11093 1.64163
4.29527 2.91345 1.64163
4.27698 2.71482 1.6339
4.25867 2.51585 1.62614
4.25867 2.31804 1.62614
4.22194 2.11689 1.61062
4.18508 1.91505 1.59502
4.1666 1.71454 1.58721
4.12956 1.51149 1.57153
4.11099 1.31012 1.56368
4.07376 1.10585 1.54793
4.03639 0.900871 1.53213
3.96127 0.689346 1.50036
3.88563 0.47635 1.46836
3.82855 0.265185 1.44422
3.79034 0.0564184 1.42806
3.7135 -0.160472 1.39556
3.63612 -0.378886 1.36285
4.19118 4.29579 1.89164
4.29734 4.09817 1.94412
4.29734 3.90169 1.94412
4.26207 3.7046 1.92669
4.26207 3.5078 1.92669
4.2444 3.31035 1.91794
4.2444 3.11337 1.91794
4.22668 2.91542 1.9092
4.20895 2.71713 1.90043
4.19118 2.5185 1.89164
4.15555 2.31804 1.87404
4.13769 2.11856 1.8652
4.1198 1.91873 1.85636
4.1198 1.72058 1.85636
4.06594 1.51588 1.82974
4.02988 1.31249 1.81193
4.02988 1.11348 1.81193
3.97556 0.906329 1.78508
3.93919 0.70101 1.7671
3.86607 0.488792 1.73096
3.79245 0.275099 1.69457
3.71831 0.059917 1.65792
3.66236 -0.153078 1.63028
3.60612 -0.367192 1.60248
4.10696 4.2954 2.15471
4.17544 4.09817 2.19373
4.17544 3.90169 2.19373
4.15836 3.70491 2.184
4.15836 3.50827 2.184
4.14126 3.31099 2.17425
4.14126 3.11419 2.17425
4.14126 2.91738 2.17425
4.12412 2.71943 2.16449
4.10696 2.52114 2.15471
4.07255 2.32102 2.13511
4.05529 2.12188 2.12527
4.03801 1.92241 2.11543
4.00337 1.72058 2.09569
3.986 1.52025 2.08578
3.95117 1.31722 2.06594
3.8987 1.11094 2.03605
3.86358 0.906329 2.01602
3.82833 0.70101 1.99593
3.77522 0.491889 1.96568
3.70399 0.278393 1.92509
3.65025 0.066895 1.89445
3.59621 -0.14571 1.86368
3.52373 -0.363308 1.82236
4.00607 4.29502 2.41429
4.0883 4.09809 2.46778
4.0883 3.90212 2.46778
4.0555 3.70553 2.44644
4.0555 3.50923 2.44644
4.0555 3.31292 2.44644
4.0555 3.11662 2.44644
4.03905 2.91934 2.43574
4.00607 2.72057 2.41429
3.98955 2.52245 2.40352
3.97299 2.324 2.39276
3.97299 2.12686 2.39276
3.97299 1.92972 2.39276
3.90648 1.72459 2.34948
3.88978 1.52461 2.33861
3.85629 1.32193 2.31683
3.80585 1.11602 2.284
3.77208 0.911768 2.26203
3.73819 0.706812 2.23998
3.67006 0.494981 2.19566
3.63582 0.288239 2.17337
3.56698 0.0738494 2.12858
3.49767 -0.142035 2.08347
3.44535 -0.355559 2.04944
3.88865 4.29464 2.6693
3.95164 4.09807 2.71578
3.95164 3.90226 2.71578
3.93593 3.70615 2.70419
3.93593 3.51017 2.70419
3.93593 3.3142 2.70419
3.9202 3.11742 2.69257
3.9202 2.92128 2.69257
3.90443 2.724 2.68095
3.87284 2.52508 2.65763
3.857 2.32696 2.64593
3.84113 2.12851 2.63423
3.82524 1.92972 2.62249
3.79336 1.72859 2.59898
3.76138 1.52678 2.57538
3.7293 1.32428 2.5517
3.6971 1.12108 2.52794
3.66479 0.917189 2.5041
3.63237 0.712594 2.48018
3.5672 0.501149 2.43207
3.51802 0.291509 2.39579
3.46859 0.0807791 2.3593
3.40228 -0.134706 2.31036
3.35223 -0.347837 2.27344
3.75488 4.29426 2.91869
3.81483 4.09802 2.96863
3.81483 3.90255 2.96863
3.78491 3.70646 2.9437
3.78491 3.51065 2.9437
3.79988 3.31548 2.95618
3.78491 3.11903 2.9437
3.76991 2.92226 2.9312
3.75488 2.72514 2.91869
3.73984 2.5277 2.90615
3.72476 2.32992 2.89359
3.69454 2.13016 2.86842
3.67938 1.93154 2.8558
3.66421 1.73258 2.84315
3.63379 1.53112 2.81779
3.60325 1.32897 2.79235
3.58793 1.12864 2.7796
3.57261 0.927974 2.76682
3.51102 0.718357 2.7155
3.449 0.507295 2.66383
3.38655 0.294774 2.6118
3.35517 0.0876856 2.58564
3.29207 -0.127401 2.53308
3.22854 -0.343987 2.48013
3.60504 4.29388 3.16142
3.66174 4.09798 3.21463
3.6476 3.90269 3.20136
3.6476 3.70738 3.20136
3.63344 3.51159 3.18807
3.63344 3.31611 3.18807
3.63344 3.12064 3.18807
3.63344 2.92516 3.18807
3.5908 2.72628 3.14806
3.5908 2.53031 3.14806
3.5908 2.33434 3.14806
3.54795 2.13345 3.10786
3.53362 1.93517 3.09441
3.50488 1.73456 3.06744
3.49048 1.53544 3.05392
3.46159 1.33364 3.02683
3.43261 1.13115 2.99963
3.38895 0.925285 2.95866
3.35971 0.721231 2.93124
3.31568 0.51342 2.88992
3.2566 0.301287 2.8345
3.21204 0.0911295 2.79268
3.16724 -0.120122 2.75063
3.10713 -0.336306 2.69425
3.41267 4.29388 3.36817
3.49274 4.09793 3.4527
3.49274 3.90311 3.4527
3.46615 3.70768 3.42461
3.47945 3.513 3.43868
3.46615 3.31738 3.42461
3.45281 3.12144 3.41055
3.43945 2.92516 3.39645
3.43945 2.72968 3.39645
3.42608 2.53291 3.38231
3.39924 2.33434 3.354
3.3858 2.13673 3.3398
3.37234 1.93878 3.32558
3.34532 1.73853 3.29707
3.33178 1.53974 3.28278
3.30464 1.3383 3.25412
3.2774 1.13616 3.22536
3.25007 0.933339 3.19651
3.19512 0.724099 3.13851
3.15366 0.516475 3.09474
3.12591 0.311014 3.06544
3.0701 0.0979996 3.00654
3.028 -0.112868 2.96209
2.97152 -0.328651 2.90246
3.23354 4.2935 3.59303
3.29584 4.09791 3.6671
3.29584 3.90325 3.6671
3.28343 3.70829 3.65233
3.28343 3.51347 3.65233
3.28343 3.31865 3.65233
3.27099 3.12303 3.63754
3.25852 2.92709 3.62273
3.24604 2.73081 3.60789
3.22101 2.53291 3.57815
3.20847 2.3358 3.56323
3.1959 2.13836 3.5483
3.1959 1.94239 3.5483
3.15807 1.7405 3.50333
3.14542 1.54189 3.48829
3.10733 1.3383 3.44303
3.08183 1.13616 3.41271
3.05625 0.933339 3.3823
3.03057 0.729822 3.35178
2.97896 0.519524 3.29043
2.95302 0.314246 3.25961
2.91395 0.104846 3.21315
2.87467 -0.105639 3.16646
2.80875 -0.324834 3.08812
3.05116 4.29294 3.82381
3.08575 4.09788 3.87021
3.08575 3.90339 3.87021
3.07425 3.70859 3.85476
3.07425 3.51394 3.85476
3.07425 3.31928 3.85476
3.06271 3.12383 3.8393
3.06271 2.92901 3.8393
3.0396 2.73194 3.80828
3.0396 2.53679 3.80828
3.02801 2.34019 3.79274
2.99313 2.13999 3.74594
2.98146 1.94239 3.73029
2.96978 1.74445 3.71461
2.94636 1.54403 3.68317
2.92284 1.34294 3.65163
2.89925 1.14116 3.61998
2.87557 0.938686 3.58823
2.85183 0.735526 3.55635
2.80408 0.525608 3.4923
2.75601 0.314246 3.42779
2.71973 0.104846 3.37913
2.68327 -0.105639 3.33021
2.63436 -0.321023 3.26459
2.83138 4.29275 4.01294
2.87367 4.09784 4.07726
2.86313 3.90353 4.06121
2.85256 3.7089 4.04515
2.85256 3.5144 4.04515
2.85256 3.31991 4.04515
2.84198 3.12463 4.02906
2.83138 2.92901 4.01294
2.83138 2.73419 4.01294
2.81013 2.53679 3.98062
2.81013 2.34164 3.98062
2.78881 2.14325 3.94819
2.76742 1.94419 3.91565
2.74594 1.74445 3.883
2.74594 1.54831 3.883
2.72441 1.34756 3.85024
2.71362 1.14861 3.83381
2.67023 0.941353 3.76785
2.63752 0.735526 3.71808
2.60462 0.528641 3.66806
2.57157 0.320692 3.61777
2.52721 0.108261 3.55032
2.50492 -0.0984354 3.51642
2.46012 -0.313421 3.44826
2.60947 4.29238 4.20607
2.63822 4.09781 4.25596
2.62865 3.90367 4.23936
2.62865 3.7095 4.23936
2.62865 3.51534 4.23936
2.61907 3.32054 4.22273
2.60947 3.12542 4.20607
2.60947 2.93093 4.20607
2.60947 2.73643 4.20607
2.59022 2.53937 4.17267
2.57092 2.34164 4.13915
2.57092 2.1465 4.13915
2.56123 1.94956 4.12235
2.53209 1.74838 4.07178
2.52235 1.55044 4.05487
2.49301 1.34756 4.00395
2.47338 1.14613 3.96986
2.47338 0.949325 3.96986
2.43389 0.74121 3.90134
2.40411 0.534693 3.84964
2.37417 0.327116 3.79767
2.334 0.115072 3.72798
2.29357 -0.0984354 3.65778
2.26305 -0.30963 3.60483
2.38308 4.29182 4.4039
2.39164 4.09779 4.42101
2.39164 3.90395 4.42101
2.38308 3.7098 4.4039
2.39164 3.51626 4.42101
2.37452 3.32117 4.38676
2.37452 3.127 4.38676
2.37452 2.93284 4.38676
2.35734 2.73643 4.35239
2.34871 2.54066 4.33517
2.34009 2.34455 4.31791
2.33144 2.14812 4.30063
2.32278 1.95135 4.28332
2.30542 1.7523 4.24861
2.288 1.55257 4.21378
2.26176 1.34987 4.16132
2.25298 1.15109 4.14377
2.24418 0.951973 4.1262
2.22656 0.749699 4.09095
2.18222 0.537712 4.00231
2.14647 0.327116 3.93086
2.12852 0.12186 3.89494
2.0924 -0.0912566 3.82275
2.05604 -0.305846 3.75006
2.11214 4.292 4.51894
2.13476 4.09777 4.57169
2.13476 3.90409 4.57169
2.13476 3.71041 4.57169
2.12724 3.51626 4.55413
2.12724 3.32242 4.55413
2.1197 3.12779 4.53655
2.1197 2.93379 4.53655
2.11214 2.73867 4.51894
2.09701 2.54194 4.48363
2.08182 2.34455 4.44819
2.08182 2.14973 4.44819
2.06658 1.95135 4.41264
2.06658 1.7562 4.41264
2.0513 1.55682 4.37697
2.03596 1.35676 4.34117
2.02827 1.1585 4.32323
2.02057 0.959892 4.30525
1.98963 0.75252 4.23306
1.95847 0.543733 4.16037
1.9271 0.333518 4.08719
1.90344 0.125245 4.03197
1.8717 -0.087676 3.9579
1.83973 -0.302068 3.88332
1.86838 4.29126 4.70737
1.87484 4.09772 4.72528
1.86838 3.90422 4.70737
1.86838 3.71071 4.70737
1.86838 3.51719 4.70737
1.85543 3.32242 4.67147
1.85543 3.12858 4.67147
1.84894 2.93379 4.65348
1.84894 2.73978 4.65348
1.83593 2.54322 4.61739
1.82943 2.34745 4.5993
1.81635 2.14973 4.56303
1.82289 1.95669 4.58118
1.80323 1.7562 4.52665
1.79666 1.55894 4.5084
1.77687 1.35676 4.4535
1.76361 1.15603 4.41674
1.76361 0.959892 4.41674
1.75031 0.758146 4.37986
1.73028 0.552726 4.3243
1.71016 0.346257 4.26845
1.66957 0.128625 4.1559
1.6423 -0.0841022 4.08022
1.62171 -0.294532 4.02312
1.5934 4.29108 4.82746
1.60415 4.09767 4.86388
1.5934 3.90436 4.82746
1.58801 3.71071 4.8092
1.58801 3.51719 4.8092
1.58262 3.32305 4.79091
1.58262 3.12937 4.79091
1.57721 2.93474 4.7726
1.57721 2.7409 4.7726
1.56636 2.5445 4.73587
1.55548 2.34745 4.69902
1.55548 2.15296 4.69902
1.55548 1.95846 4.69902
1.54457 1.76009 4.66205
1.52812 1.55894 4.60636
1.51711 1.35906 4.56907
1.51711 1.16341 4.56907
1.5116 0.965149 4.55038
1.48943 0.758146 4.47531
1.46152 0.546736 4.38074
1.44464 0.339898 4.32361
1.42203 0.128625 4.24698
1.40494 -0.0805345 4.18917
1.38206 -0.294532 4.11161
1.30643 4.29108 4.91289
1.31073 4.0977 4.9314
1.31073 3.9045 4.9314
1.30643 3.71101 4.91289
1.30214 3.51719 4.89435
1.30214 3.32367 4.89435
1.30214 3.13015 4.89435
1.29782 2.93569 4.87578
1.29782 2.74201 4.87578
1.2935 2.54705 4.85717
1.28049 2.34889 4.80118
1.27614 2.15296 4.78245
1.27614 1.95846 4.78245
1.26742 1.76009 4.7449
1.25868 1.56105 4.70722
1.24989 1.36134 4.66941
1.26305 1.1732 4.72607
1.24108 0.965149 4.63148
1.21448 0.75252 4.51691
1.20555 0.549734 4.47845
1.18761 0.339898 4.40116
1.17857 0.135366 4.36232
1.16044 -0.0769725 4.28422
1.14676 -0.287022 4.2253
1.01495 4.29108 4.98128
1.02134 4.09767 5.01871
1.01815 3.9045 5.00001
1.01815 3.71131 5.00001
1.01495 3.51765 4.98128
1.01495 3.32429 4.98128
1.01174 3.13015 4.96252
1.01174 2.93663 4.96252
1.00854 2.74201 4.94372
1.0021 2.54578 4.90604
0.998862 2.35034 4.88715
0.995633 2.15456 4.86823
0.995633 1.96023 4.86823
0.985898 1.76009 4.81128
0.979375 1.56105 4.77315
0.976115 1.36363 4.75404
0.985898 1.17563 4.81128
0.962992 0.962523 4.67727
0.946471 0.75252 4.58057
0.943145 0.552726 4.56113
0.926443 0.339898 4.46344
0.919727 0.135366 4.42413
0.909605 -0.0734167 4.36491
0.896021 -0.287022 4.28548
0.719932 4.29108 5.03239
0.724128 4.09767 5.07014
0.724128 3.90464 5.07014
0.722025 3.71131 5.05128
0.722025 3.51811 5.05128
0.719932 3.32429 5.03239
0.719932 3.13094 5.03239
0.71785 2.93663 5.01347
0.71785 2.74312 5.01347
0.715739 2.54833 4.99452
0.711529 2.35178 4.95653
0.709429 2.15617 4.93748
0.713639 1.96553 4.97554
0.705182 1.76397 4.89929
0.705182 1.56948 4.89929
0.705182 1.37498 4.89929
0.700935 1.17563 4.86098
0.688111 0.965149 4.74525
0.6795 0.758146 4.66744
0.672984 0.552726 4.60874
0.666442 0.346257 4.54974
0.657672 0.135366 4.4706
0.651054 -0.0734167 4.41089
0.644417 -0.283277 4.35087
0.426338 4.29034 5.14177
0.425362 4.09765 5.12289
0.42438 3.90464 5.10397
0.42438 3.7116 5.10397
0.42341 3.51811 5.08503
0.42341 3.32492 5.08503
0.42341 3.13172 5.08503
0.422433 2.93758 5.06605
0.421449 2.74312 5.04704
0.419478 2.54705 5.00892
0.419478 2.35321 5.00892
0.417517 2.15617 4.97068
0.418511 1.96377 4.98982
0.414547 1.76203 4.91308
0.413561 1.56527 4.89381
0.414547 1.37272 4.91308
0.411565 1.17076 4.85518
0.409574 0.970387 4.81642
0.405553 0.763753 4.73851
0.400506 0.552726 4.64037
0.398459 0.349428 4.60088
0.394382 0.138728 4.5215
0.391284 -0.0698671 4.4616
0.387152 -0.283277 4.38126
0.12345 4.29108 5.08213
0.123027 4.09765 5.13904
0.123027 3.90478 5.13904
0.12318 3.7116 5.1201
0.123308 3.51811 5.10113
0.123308 3.32492 5.10113
0.123308 3.13172 5.10113
0.123586 2.93663 5.0631
0.123586 2.74312 5.0631
0.123882 2.54705 5.02493
0.123882 2.35321 5.02493
0.124156 2.15617 4.98664
0.124156 1.962 4.98664
0.124602 1.76203 4.92896
0.124733 1.56527 4.90967
0.124876 1.36818 4.89035
0.125309 1.16586 4.83218
0.125599 0.965149 4.79324
0.126032 0.760952 4.73458
0.126479 0.555714 4.67562
0.12706 0.346257 4.59654
0.127353 0.142085 4.5568
0.127957 -0.0698671 4.4769
0.128409 -0.279538 4.41662
-0.177203 4.29089 5.09955
-0.179715 4.09765 5.13737
-0.179715 3.90478 5.13737
-0.178467 3.7116 5.11847
-0.177203 3.51811 5.09955
-0.177203 3.32492 5.09955
-0.177203 3.13172 5.09955
-0.175943 2.93758 5.08058
-0.174686 2.74312 5.06159
-0.173432 2.54833 5.04256
-0.172163 2.35321 5.02351
-0.169616 2.15617 4.9853
-0.168338 1.96023 4.96615
-0.167065 1.76397 4.94696
-0.164509 1.56527 4.9085
-0.161951 1.36591 4.8699
-0.159372 1.16586 4.83118
-0.156791 0.965149 4.79232
-0.152905 0.760952 4.73379
-0.149006 0.555714 4.67495
-0.143753 0.346257 4.59605
-0.141121 0.142085 4.55639
-0.135831 -0.0698671 4.47667
-0.130492 -0.283277 4.3964
-0.477119 4.29089 5.08027
-0.481853 4.09765 5.11788
-0.481853 3.90478 5.11788
-0.481853 3.7119 5.11788
-0.479495 3.51857 5.09909
-0.477119 3.32492 5.08027
-0.477119 3.13172 5.08027
-0.474744 2.93758 5.06141
-0.472371 2.74312 5.04253
-0.467592 2.54705 5.00466
-0.467592 2.35321 5.00466
-0.462819 2.15617 4.96667
-0.460416 1.96023 4.94762
-0.455616 1.76203 4.90944
-0.4532 1.56527 4.8903
-0.448374 1.36591 4.85192
-0.443519 1.16586 4.81341
-0.436217 0.962523 4.75541
-0.428881 0.758146 4.69711
-0.423956 0.555714 4.65807
-0.416552 0.349428 4.59928
-0.409122 0.142085 4.54018
-0.399131 -0.0698671 4.46091
-0.391614 -0.279538 4.4011
-0.77536 4.29089 5.04337
-0.7823 4.09765 5.08064
-0.7823 3.90478 5.08064
-0.77536 3.71131 5.04337
-0.77884 3.51857 5.06202
-0.77536 3.32492 5.04337
-0.77536 3.13172 5.04337
-0.768399 2.93663 5.00597
-0.768399 2.74312 5.00597
-0.764918 2.54833 4.98723
-0.761417 2.35321 4.96845
-0.754397 2.15617 4.93081
-0.750896 1.96023 4.91194
-0.747358 1.76397 4.89304
-0.740299 1.56527 4.85514
-0.733222 1.36591 4.81711
-0.726109 1.16586 4.77896
-0.718978 0.965149 4.74067
-0.70824 0.760952 4.683
-0.697453 0.555714 4.62504
-0.682962 0.346257 4.54729
-0.675687 0.142085 4.50822
-0.661064 -0.0698671 4.42967
-0.650021 -0.279538 4.37041
-1.06636 4.29108 4.97053
-1.08005 4.09765 5.02577
-1.0755 3.90464 5.00739
-1.07093 3.71131 4.98897
-1.07093 3.51811 4.98897
-1.06636 3.32429 4.97053
-1.07093 3.13172 4.98897
-1.06178 2.93663 4.95205
-1.06178 2.74312 4.95205
-1.05258 2.54705 4.91501
-1.04798 2.35178 4.89644
-1.04338 2.15617 4.87784
-1.03413 1.95846 4.84055
-1.0295 1.76203 4.82186
-1.0295 1.56738 4.82186
-1.01555 1.36591 4.76559
-1.0062 1.16586 4.72792
-0.996827 0.965149 4.69012
-0.977992 0.758146 4.61414
-0.968513 0.555714 4.57596
-0.949488 0.346257 4.4992
-0.939925 0.142085 4.46062
-0.920686 -0.0698671 4.38308
-0.906191 -0.279538 4.32456
-1.35713 4.29108 4.89913
-1.37406 4.09765 4.95347
-1.36279 3.9045 4.91727
-1.36279 3.71131 4.91727
-1.36279 3.51811 4.91727
-1.36279 3.32492 4.91727
-1.35713 3.13094 4.89913
-1.3458 2.93569 4.86275
-1.3458 2.74201 4.86275
-1.34012 2.54705 4.84452
-1.33443 2.35178 4.82625
-1.32303 2.15456 4.78963
-1.31731 1.95846 4.77127
-1.30584 1.76009 4.73447
-1.31731 1.56948 4.77127
-1.29433 1.36591 4.69754
-1.277 1.16341 4.64191
-1.26541 0.962523 4.60466
-1.24792 0.758146 4.54856
-1.23037 0.552726 4.49217
-1.2127 0.346257 4.4355
-1.19497 0.138728 4.37853
-1.17713 -0.0698671 4.32127
-1.1592 -0.279538 4.26372
-1.64319 4.29108 4.81074
-1.6566 4.09767 4.84627
-1.6499 3.9045 4.82852
-1.64319 3.71101 4.81074
-1.64319 3.51765 4.81074
-1.63647 3.32367 4.79293
-1.63647 3.13015 4.79293
-1.63647 2.93663 4.79293
-1.62973 2.74201 4.77509
-1.62298 2.54705 4.75723
-1.61623 2.35178 4.73933
-1.61623 2.15777 4.73933
-1.5959 1.95846 4.68545
-1.58911 1.76203 4.66743
-1.5959 1.56948 4.68545
-1.56179 1.36363 4.59505
-1.54118 1.16096 4.54045
-1.52739 0.959892 4.50389
-1.51355 0.758146 4.46721
-1.49269 0.552726 4.41195
-1.47874 0.349428 4.37495
-1.4577 0.142085 4.31923
-1.44361 -0.0627856 4.28192
-1.41531 -0.275805 4.20691
-1.91579 4.29126 4.68828
-1.9313 4.0977 4.72301
-1.92356 3.90436 4.70566
-1.92356 3.71101 4.70566
-1.91579 3.51719 4.68828
-1.91579 3.32367 4.68828
-1.90802 3.12937 4.67087
-1.90802 2.93569 4.67087
-1.90024 2.7409 4.65343
-1.88462 2.5445 4.61846
-1.88462 2.35034 4.61846
-1.86898 2.15296 4.58337
-1.88462 1.962 4.61846
-1.88462 1.76784 4.61846
-1.87681 1.57157 4.60093
-1.84539 1.36818 4.53052
-1.81374 1.16341 4.45964
-1.78988 0.959892 4.40616
-1.7739 0.758146 4.37036
-1.74178 0.549734 4.29838
-1.72565 0.346257 4.26221
-1.70133 0.138728 4.20772
-1.67688 -0.0698671 4.15296
-1.66052 -0.275805 4.11629
-2.1709 4.29163 4.53348
-2.20599 4.0977 4.60113
-2.18847 3.90422 4.56736
-2.18847 3.71071 4.56736
-2.18847 3.51719 4.56736
-2.17968 3.32305 4.55044
-2.1709 3.12858 4.53348
-2.1709 2.93474 4.53348
-2.16207 2.73978 4.51651
-2.15325 2.5445 4.4995
-2.15325 2.35034 4.4995
-2.19724 2.16415 4.58426
-2.18847 1.96904 4.56736
-2.18847 1.77553 4.56736
-2.17968 1.57993 4.55044
-2.12669 1.37272 4.4483
-2.09105 1.16831 4.37963
-2.06417 0.965149 4.32783
-2.03715 0.760952 4.27576
-2.00091 0.552726 4.20592
-1.96442 0.34308 4.13561
-1.93689 0.135366 4.08256
-1.90922 -0.0734167 4.02923
-1.87211 -0.287022 3.9577
-2.43402 4.29163 4.39782
-2.45357 4.09774 4.4306
-2.4438 3.90409 4.41423
-2.4438 3.71041 4.41423
-2.43402 3.51626 4.39782
-2.4438 3.32305 4.41423
-2.43402 3.12858 4.39782
-2.42422 2.93379 4.38139
-2.42422 2.73978 4.38139
-2.40458 2.54322 4.34844
-2.39474 2.34745 4.33193
-2.41442 2.15617 4.36493
-2.39474 1.95846 4.33193
-2.39474 1.76397 4.33193
-2.39474 1.56948 4.33193
-2.375 1.37045 4.29881
-2.35518 1.17076 4.26559
-2.33532 0.970387 4.23225
-2.28534 0.760952 4.14841
-2.23493 0.549734 4.06387
-2.21465 0.346257 4.02984
-2.17388 0.135366 3.96145
-2.13283 -0.0769725 3.89259
-2.09149 -0.290774 3.82325
-2.67796 4.29182 4.23107
-2.69944 4.09777 4.2627
-2.6887 3.90395 4.2469
-2.69944 3.71041 4.2627
-2.6887 3.51626 4.2469
-2.6887 3.32242 4.2469
-2.66719 3.127 4.21522
-2.66719 2.93284 4.21522
-2.6564 2.73755 4.19935
-2.6456 2.54194 4.18344
-2.63479 2.346 4.1675
-2.62395 2.14973 4.15154
-2.61309 1.95313 4.13556
-2.59133 1.75425 4.1035
-2.60222 1.56105 4.11954
-2.59133 1.36363 4.1035
-2.55854 1.16096 4.05521
-2.51457 0.954618 3.99045
-2.49248 0.75252 3.9579
-2.44805 0.543733 3.89248
-2.41453 0.33671 3.84311
-2.38085 0.128625 3.79349
-2.33565 -0.0841022 3.72694
-2.31294 -0.290774 3.69349
-2.91072 4.292 4.05089
-2.93405 4.09779 4.08125
-2.92239 3.90381 4.06608
-2.91072 3.7095 4.05089
-2.92239 3.5158 4.06608
-2.91072 3.32117 4.05089
-2.91072 3.127 4.05089
-2.89902 2.93188 4.03567
-2.8873 2.73643 4.02043
-2.87557 2.54066 4.00516
-2.86381 2.34455 3.98986
-2.84024 2.1465 3.95919
-2.84024 1.95135 3.95919
-2.81658 1.7523 3.92843
-2.81658 1.55682 3.92843
-2.79284 1.35676 3.89755
-2.75709 1.15356 3.85104
-2.72115 0.949325 3.80431
-2.69709 0.746874 3.77301
-2.66086 0.540725 3.72586
-2.62443 0.333518 3.67848
-2.58782 0.125245 3.63085
-2.55101 -0.0841022 3.58297
-2.50164 -0.298296 3.51876
-3.13158 4.29219 3.858
-3.15671 4.09781 3.88698
-3.14414 3.90367 3.87251
-3.13158 3.7092 3.858
-3.13158 3.51487 3.858
-3.14414 3.32117 3.87251
-3.13158 3.12621 3.858
-3.11897 2.93093 3.84348
-3.10636 2.73531 3.82893
-3.09372 2.53937 3.81436
-3.08106 2.3431 3.79976
-3.06838 2.1465 3.78513
-3.06838 1.95135 3.78513
-3.05568 1.75425 3.77048
-3.04295 1.55682 3.75581
-3.00466 1.35447 3.71163
-2.96617 1.15109 3.66723
-2.9404 0.949325 3.63751
-2.88859 0.74121 3.57776
-2.86255 0.537712 3.54773
-2.82334 0.33032 3.50249
-2.78391 0.12186 3.45703
-2.74429 -0.087676 3.41132
-2.71776 -0.294532 3.38072
-3.33984 4.29238 3.6532
-3.36667 4.09784 3.68069
-3.33984 3.90339 3.6532
-3.32639 3.70859 3.63941
-3.33984 3.5144 3.6532
-3.33984 3.31991 3.6532
-3.32639 3.12463 3.63941
-3.32639 2.92997 3.63941
-3.31291 2.73419 3.62561
-3.29942 2.53808 3.61178
-3.2859 2.34164 3.59792
-3.25879 2.14325 3.57015
-3.24521 1.94598 3.55622
-3.23159 1.74838 3.54228
-3.25879 1.55682 3.57015
-3.23159 1.35676 3.54228
-3.19062 1.15356 3.50029
-3.13567 0.946672 3.44398
-3.09421 0.74121 3.4015
-3.05253 0.534693 3.3588
-3.02463 0.33032 3.33021
-2.96855 0.118469 3.27273
-2.92623 -0.0912566 3.22936
-2.88368 -0.302068 3.18578
-3.50633 4.29294 3.41127
-3.53487 4.09791 3.43728
-3.52061 3.90311 3.42428
-3.52061 3.70829 3.42428
-3.52061 3.51347 3.42428
-3.52061 3.31865 3.42428
-3.52061 3.12383 3.42428
-3.54912 2.93093 3.45024
-3.53487 2.73531 3.43728
-3.49201 2.53679 3.39824
-3.46332 2.33873 3.3721
-3.43453 2.13999 3.34588
-3.43453 1.94419 3.34588
-3.4201 1.74642 3.33274
-3.40563 1.54831 3.31958
-3.43453 1.35676 3.34588
-3.43453 1.16096 3.34588
-3.31837 0.944015 3.24011
-3.2597 0.735526 3.18668
-3.23023 0.53167 3.15982
-3.1858 0.323907 3.11938
-3.12622 0.111669 3.06512
-3.09628 -0.0948429 3.03785
-3.03607 -0.30963 2.98303
-3.68601 4.29312 3.18676
-3.71609 4.09793 3.21108
-3.71609 3.90311 3.21108
-3.68601 3.70768 3.18676
-3.68601 3.51253 3.18676
-3.68601 3.31738 3.18676
-3.68601 3.12224 3.18676
-3.68601 2.92709 3.18676
-3.7311 2.73531 3.22321
-3.65583 2.53421 3.16237
-3.62554 2.3358 3.13789
-3.61036 2.13836 3.12562
-3.59516 1.94059 3.11332
-3.59516 1.74445 3.11332
-3.56466 1.54403 3.08868
-3.61036 1.35447 3.12562
-3.53406 1.14613 3.06396
-3.50337 0.944015 3.03913
-3.44165 0.735526 2.98925
-3.37952 0.525608 2.93902
-3.33264 0.317472 2.90113
-3.28551 0.108261 2.86304
-3.25396 -0.0984354 2.83753
-3.19053 -0.313421 2.78626
-3.85146 4.29331 2.95296
-3.88297 4.09795 2.9755
-3.86722 3.90283 2.96425
-3.86722 3.70768 2.96425
-3.86722 3.51253 2.96425
-3.86722 3.31738 2.96425
-3.86722 3.12224 2.96425
-3.85146 2.92613 2.95296
-3.88297 2.73307 2.9755
-3.80399 2.53161 2.919
-3.80399 2.3358 2.919
-3.80399 2.13999 2.919
-3.80399 1.94419 2.919
-3.7722 1.74445 2.89628
-3.74031 1.54403 2.87347
-3.74031 1.34756 2.87347
-3.69228 1.14365 2.83911
-3.644 0.938686 2.80457
-3.57923 0.729822 2.75825
-3.54668 0.525608 2.73497
-3.48124 0.314246 2.68818
-3.43188 0.104846 2.65286
-3.38225 -0.105639 2.61737
-3.33237 -0.317219 2.58169
-3.98572 4.29369 2.70039
-4.01862 4.098 2.72111
-4.00218 3.90255 2.71076
-4.00218 3.70707 2.71076
-4.03503 3.51253 2.73143
-4.0514 3.31802 2.74175
-4.08408 3.12463 2.76232
-4.03503 2.92709 2.73143
-4.0514 2.73307 2.74175
-3.95271 2.53031 2.6796
-3.93617 2.33287 2.66918
-3.91959 2.13509 2.65874
-3.90299 1.93698 2.64829
-3.90299 1.7405 2.64829
-3.93617 1.54831 2.66918
-3.90299 1.34756 2.64829
-3.81955 1.13866 2.59574
-3.76915 0.933339 2.56401
-3.70154 0.724099 2.52143
-3.65053 0.516475 2.48931
-3.61638 0.311014 2.4678
-3.54771 0.0979996 2.42457
-3.4959 -0.112868 2.39195
-3.44382 -0.324834 2.35915
-4.12071 4.29388 2.45166
-4.13778 4.09805 2.46107
-4.12071 3.90226 2.45166
-4.12071 3.70646 2.45166
-4.12071 3.51065 2.45166
-4.12071 3.31484 2.45166
-4.12071 3.11903 2.45166
-4.13778 2.92419 2.46107
-4.15483 2.72968 2.47044
-4.06932 2.5277 2.42338
-4.05213 2.32992 2.41392
-4.03491 2.1318 2.40445
-4.01766 1.93335 2.39496
-4.00038 1.73456 2.38545
-4.01766 1.53974 2.39496
-4.01766 1.34294 2.39496
-3.8961 1.12864 2.32806
-3.87862 0.927974 2.31844
-3.82598 0.721231 2.28947
-3.77308 0.51342 2.26036
-3.73765 0.307778 2.24088
-3.66645 0.0945678 2.20169
-3.61271 -0.116491 2.17212
-3.55871 -0.328651 2.14239
-4.22261 4.29426 2.18803
-4.24026 4.09809 2.19644
-4.22261 3.90198 2.18803
-4.22261 3.70584 2.18803
-4.22261 3.5097 2.18803
-4.22261 3.31356 2.18803
-4.22261 3.11742 2.18803
-4.20492 2.92031 2.17962
-4.24026 2.72628 2.19644
-4.18721 2.52639 2.17119
-4.16946 2.32844 2.16273
-4.13387 2.12851 2.14581
-4.13387 1.93154 2.14581
-4.09818 1.73059 2.12881
-4.08027 1.53112 2.1203
-4.11604 1.3383 2.13731
-4.00838 1.12613 2.08609
-3.97225 0.922591 2.06888
-3.8996 0.712594 2.03432
-3.8631 0.507295 2.01695
-3.8081 0.298033 1.99077
-3.75281 0.0876856 1.96447
-3.7158 -0.120122 1.94685
-3.66003 -0.332475 1.92032
-4.30777 4.29464 1.92091
-4.34409 4.09812 1.93566
-4.30777 3.90169 1.92091
-4.30777 3.70522 1.92091
-4.30777 3.50875 1.92091
-4.30777 3.31228 1.92091
-4.30777 3.11581 1.92091
-4.28955 2.91836 1.91353
-4.28955 2.72172 1.91353
-4.27131 2.52377 1.90614
-4.28955 2.32844 1.91353
-4.25303 2.12851 1.89872
-4.21639 1.92789 1.88387
-4.19802 1.72859 1.87641
-4.16119 1.52678 1.86147
-4.19802 1.33364 1.87641
-4.12424 1.12613 1.84649
-4.04994 0.917189 1.81636
-3.99388 0.709706 1.79363
-3.93754 0.501149 1.77078
-3.89981 0.294774 1.75548
-3.84297 0.0842357 1.73244
-3.78585 -0.127401 1.70926
-3.74759 -0.336306 1.69376
-4.39476 4.29483 1.65768
-4.41338 4.09817 1.66399
-4.41338 3.90169 1.66399
-4.39476 3.70491 1.65768
-4.37612 3.5078 1.65137
-4.37612 3.31099 1.65137
-4.37612 3.11419 1.65137
-4.37612 2.91738 1.65137
-4.35744 2.71943 1.64504
-4.33872 2.52114 1.63871
-4.31998 2.32251 1.63237
-4.33872 2.12686 1.63871
-4.2824 1.92424 1.61964
-4.26356 1.72459 1.61328
-4.24469 1.52461 1.60688
-4.22578 1.32428 1.6005
-4.18788 1.12108 1.58766
-4.13078 0.914481 1.56833
-4.07338 0.706812 1.54891
-3.9964 0.494981 1.52285
-3.97706 0.291509 1.51631
-3.91887 0.0807791 1.49661
-3.87991 -0.127401 1.48342
-3.7819 -0.347837 1.45025
-4.46574 4.29502 1.39089
-4.46574 4.09821 1.39089
-4.44672 3.90127 1.38567
-4.44672 3.70429 1.38567
-4.44672 3.50732 1.38567
-4.44672 3.31035 1.38567
-4.42767 3.11256 1.38046
-4.42767 2.91542 1.38046
-4.42767 2.71828 1.38046
-4.40859 2.51982 1.37523
-4.38947 2.32102 1.36998
-4.38947 2.12355 1.36998
-4.35114 1.92241 1.35947
-4.31268 1.72058 1.34894
-4.31268 1.52243 1.34894
-4.27408 1.31957 1.33837
-4.21595 1.11348 1.32243
-4.17702 0.909051 1.31177
-4.11838 0.70101 1.29569
-4.07911 0.494981 1.28494
-4.05943 0.291509 1.27954
-3.98036 0.0773175 1.25787
-3.90074 -0.138367 1.23605
-3.84066 -0.351695 1.21959
-4.4819 4.29559 1.1133
-4.50126 4.09826 1.11739
-4.50126 3.90112 1.11739
-4.50126 3.70398 1.11739
-4.4819 3.50636 1.1133
-4.4819 3.30905 1.1133
-4.4819 3.11174 1.1133
-4.4819 2.91444 1.1133
-4.46251 2.71597 1.10918
-4.46251 2.5185 1.10918
-4.42363 2.31804 1.10097
-4.40414 2.11856 1.09683
-4.40414 1.92057 1.09683
-4.38461 1.72058 1.0927
-4.34546 1.51807 1.08442
-4.30618 1.31485 1.0761
-4.247 1.1084 1.06359
-4.20738 0.903602 1.0552
-4.16762 0.698101 1.04678
-4.12772 0.491889 1.03833
-4.04751 0.278393 1.02137
-3.98699 0.066895 1.00856
-3.94646 -0.142035 0.999976
-3.88541 -0.355559 0.987062
-4.50044 4.29598 0.841601
-4.52007 4.09831 0.844558
-4.50044 3.90069 0.841601
-4.52007 3.70336 0.844558
-4.50044 3.5054 0.841601
-4.50044 3.30775 0.841601
-4.50044 3.11011 0.841601
-4.48077 2.91148 0.838631
-4.48077 2.71366 0.838631
-4.48077 2.51585 0.838631
-4.44134 2.31504 0.832688
-4.44134 2.11689 0.832688
-4.40177 1.91505 0.826712
-4.40177 1.71656 0.826712
-4.38193 1.51588 0.823731
-4.34216 1.31249 0.817729
-4.28224 1.10585 0.808695
-4.24213 0.900871 0.802645
-4.18169 0.692269 0.79354
-4.12094 0.482581 0.784373
-4.08026 0.275099 0.778244
-3.99849 0.059917 0.765919
-3.95738 -0.14939 0.75972
-3.87475 -0.367192 0.747259
-4.52237 4.29617 0.573399
-4.54218 4.09833 0.575189
-4.52237 3.90054 0.573399
-4.50253 3.70242 0.571582
-4.52237 3.50492 0.573399
-4.52237 3.3071 0.573399
-4.50253 3.10847 0.571582
-4.50253 2.91049 0.571582
-4.50253 2.7125 0.571582
-4.46274 2.51186 0.567967
-4.4428 2.31203 0.566152
-4.4428 2.11354 0.566152
-4.40281 1.91135 0.562508
-4.40281 1.71252 0.562508
-4.36269 1.50929 0.558869
-4.32242 1.30536 0.555203
-4.28202 1.10073 0.551524
-4.24148 0.895394 0.547832
-4.1804 0.686417 0.542278
-4.119 0.47635 0.536695
-4.07789 0.268495 0.532952
-4.01596 0.0564184 0.52732
-3.9537 -0.156772 0.521646
-3.89112 -0.371083 0.515956
-4.50842 4.29656 0.304895
-4.50842 4.09841 0.304895
-4.50842 3.90025 0.304895
-4.50842 3.7021 0.304895
-4.50842 3.50395 0.304895
-4.48844 3.30514 0.304249
-4.50842 3.10765 0.304895
-4.50842 2.90949 0.304895
-4.46843 2.70901 0.303612
-4.46843 2.51052 0.303612
-4.44838 2.31052 0.302982
-4.40817 2.1085 0.301697
-4.40817 1.9095 0.301697
-4.38802 1.70846 0.301058
-4.34761 1.50488 0.299768
-4.30706 1.30059 0.298475
-4.26637 1.0956 0.297176
-4.20507 0.887144 0.295227
-4.18457 0.683482 0.294574
-4.1022 0.470096 0.291952
-4.06079 0.261868 0.29064
-4.01925 0.0529141 0.289316
-3.93572 -0.164179 0.286653
-3.89373 -0.374982 0.285313
-4.47855 4.29695 0.0400347
-4.51855 4.09841 0.0389443
-4.49857 3.90011 0.0394928
-4.49857 3.70179 0.0394928
-4.47855 3.50298 0.0400347
-4.47855 3.30449 0.0400347
-4.47855 3.106 0.0400347
-4.4585 2.90651 0.0405698
-4.4585 2.70785 0.0405698
-4.43841 2.50785 0.0411152
-4.41829 2.3075 0.0416704
-4.39813 2.10681 0.0422018
-4.37794 1.90578 0.0427597
-4.35772 1.7044 0.0433103
-4.31716 1.50046 0.044406
-4.27647 1.29581 0.0455047
-4.23563 1.09045 0.0466053
-4.19465 0.884383 0.0477228
-4.15353 0.6776 0.0488238
-4.09158 0.466961 0.0505152
-4.07086 0.261868 0.051067
-3.98761 0.045887 0.0533241
-3.92479 -0.167892 0.0550297
-3.86164 -0.382798 0.0567375
-4.43313 4.29734 -0.22024
-4.47314 4.09846 -0.223698
-4.43313 3.89967 -0.22024
-4.45315 3.70116 -0.221966
-4.43313 3.50201 -0.22024
-4.43313 3.30318 -0.22024
-4.43313 3.10434 -0.22024
-4.43313 2.90551 -0.22024
-4.41308 2.70551 -0.218518
-4.39299 2.50516 -0.216784
-4.39299 2.30599 -0.216784
-4.33252 2.10174 -0.211579
-4.33252 1.90205 -0.211579
-4.31229 1.70032 -0.209833
-4.27173 1.49601 -0.20634
-4.2514 1.29341 -0.204578
-4.21062 1.08787 -0.201071
-4.1492 0.87885 -0.195774
-4.10808 0.671696 -0.192231
-4.04612 0.460674 -0.186888
-3.98383 0.248545 -0.181529
-3.94213 0.0388346 -0.177926
-3.92122 -0.167892 -0.176128
-3.90028 -0.374982 -0.174323
-4.37261 4.29773 -0.475034
-4.43236 4.09848 -0.48375
-4.37261 3.89938 -0.475034
-4.41248 3.70084 -0.480847
-4.37261 3.50103 -0.475034
-4.37261 3.30186 -0.475034
-4.41248 3.10434 -0.480847
-4.37261 2.90351 -0.475034
-4.37261 2.70433 -0.475034
-4.35262 2.50381 -0.472107
-4.3326 2.30295 -0.469199
-4.29246 2.10004 -0.463328
-4.29246 1.90018 -0.463328
-4.25217 1.69622 -0.457454
-4.25217 1.49601 -0.457454
-4.21175 1.29101 -0.451561
-4.15085 1.08269 -0.442677
-4.13048 0.87885 -0.439708
-4.04865 0.665772 -0.427764
-4.00751 0.457523 -0.421764
-3.92482 0.241848 -0.4097
-3.88325 0.0317583 -0.403625
-3.84154 -0.17907 -0.397541
-3.7787 -0.394575 -0.388372
-4.33706 4.29773 -0.73162
-4.33706 4.09855 -0.73162
-4.37652 3.89967 -0.73977
-4.37652 3.70084 -0.73977
-4.37652 3.50201 -0.73977
-4.33706 3.30186 -0.73162
-4.35681 3.10351 -0.735703
-4.29747 2.9015 -0.72344
-4.27762 2.7008 -0.719344
-4.25773 2.49976 -0.715232
-4.25773 2.2999 -0.715232
-4.23782 2.09834 -0.711122
-4.21787 1.89643 -0.706996
-4.17786 1.69211 -0.698718
-4.17786 1.49156 -0.698718
-4.13772 1.28619 -0.69043
-4.13772 1.08528 -0.69043
-4.11759 0.881619 -0.686265
-4.03674 0.668737 -0.669562
-3.97574 0.457523 -0.656949
-3.87334 0.238491 -0.635796
-3.83213 0.0282111 -0.627275
-3.77005 -0.186556 -0.614454
-4.24742 4.29812 -0.975188
-4.28647 4.09855 -0.985685
-4.24742 3.89909 -0.975188
-4.24742 3.69957 -0.975188
-4.22785 3.49956 -0.969914
-4.22785 3.29987 -0.969914
-4.22785 3.10018 -0.969914
-4.22785 2.90049 -0.969914
-4.20824 2.69962 -0.964655
-4.1886 2.49841 -0.959363
-4.1886 2.29837 -0.959363
-4.16893 2.09663 -0.95407
-4.12948 1.89267 -0.943467
-4.1097 1.69005 -0.938157
-4.08989 1.48709 -0.93283
-4.05017 1.28135 -0.922145
-4.0103 1.0749 -0.911427
-3.95025 0.86493 -0.895275
-3.88988 0.653862 -0.879035
-3.86969 0.448035 -0.873603
-3.84946 0.241848 -0.868172
-3.80889 0.0317583 -0.857267
-3.70686 -0.190309 -0.829816
-4.12486 4.29871 -1.20429
-4.18265 4.0986 -1.22354
-4.14416 3.89879 -1.21072
-4.14416 3.69893 -1.21072
-4.14416 3.49907 -1.21072
-4.14416 3.29921 -1.21072
-4.12486 3.09851 -1.20429
-4.12486 2.89847 -1.20429
-4.10553 2.69725 -1.19785
-4.10553 2.49705 -1.19785
-4.06677 2.29377 -1.18494
-4.06677 2.09322 -1.18494
-4.02788 1.88889 -1.17198
-4.02788 1.68799 -1.17198
-3.98886 1.4826 -1.15897
-3.9497 1.2765 -1.14593
-3.91039 1.06968 -1.13284
-3.87096 0.862132 -1.11971
-3.81155 0.650871 -1.09991
-3.77176 0.441683 -1.08665
-3.71183 0.228384 -1.06668
-3.67169 0.0175304 -1.05332
-3.63142 -0.194068 -1.03989
-4.0279 4.29891 -1.43746
-4.06569 4.09865 -1.45259
-4.04681 3.89864 -1.44503
-4.0279 3.69829 -1.43746
-4.0279 3.49808 -1.43746
-4.0279 3.29787 -1.43746
-4.0279 3.09767 -1.43746
-4.0279 2.89746 -1.43746
-3.98996 2.69488 -1.42229
-3.98996 2.49432 -1.42229
-3.97095 2.29223 -1.4147
-3.9519 2.08979 -1.40708
-3.93282 1.887 -1.39944
-3.91371 1.68385 -1.3918
-3.89456 1.48035 -1.38414
-3.83692 1.27163 -1.36108
-3.79833 1.06444 -1.34564
-3.81764 0.86493 -1.35337
-3.72073 0.647875 -1.31461
-3.68173 0.438498 -1.29901
-3.62297 0.225003 -1.2755
-3.5639 0.0103784 -1.25188
-3.50452 -0.205386 -1.22812
-3.91781 4.29911 -1.66342
-3.93628 4.0987 -1.6721
-3.93628 3.89849 -1.6721
-3.89931 3.69764 -1.65473
-3.91781 3.49759 -1.66342
-3.91781 3.29721 -1.66342
-3.91781 3.09683 -1.66342
-3.89931 2.89543 -1.65473
-3.89931 2.69488 -1.65473
-3.88078 2.49296 -1.64601
-3.86221 2.29069 -1.63728
-3.84361 2.08807 -1.62855
-3.82499 1.8851 -1.61978
-3.78763 1.6797 -1.60222
-3.75014 1.47358 -1.58461
-3.73135 1.26919 -1.57576
-3.71252 1.06444 -1.56693
-3.67477 0.85652 -1.54918
-3.59887 0.641868 -1.5135
-3.56072 0.432112 -1.49557
-3.48402 0.214825 -1.45952
-3.44547 0.00320196 -1.44139
-3.42614 -0.205386 -1.43231
-3.79514 4.2993 -1.8814
-3.79514 4.09875 -1.8814
-3.83101 3.89849 -1.90094
-3.83101 3.69829 -1.90094
-3.79514 3.49709 -1.8814
-3.75912 3.2952 -1.86182
-3.77714 3.09514 -1.87162
-3.77714 2.89441 -1.87162
-3.75912 2.69249 -1.86182
-3.75912 2.49159 -1.86182
-3.72299 2.2876 -1.84216
-3.68673 2.0829 -1.82243
-3.68673 1.8813 -1.82243
-3.68673 1.6797 -1.82243
-3.63211 1.47131 -1.7927
-3.61384 1.26674 -1.78276
-3.5772 1.05918 -1.76282
-3.55882 0.853707 -1.75284
-3.50353 0.641868 -1.72275
-3.42935 0.425703 -1.68237
-3.37336 0.21142 -1.65192
-3.31708 -0.00400066 -1.62129
-3.31708 -0.209172 -1.62129
-3.643 4.2997 -2.07988
-3.643 4.0988 -2.07988
-3.643 3.8979 -2.07988
-3.643 3.697 -2.07988
-3.643 3.4961 -2.07988
-3.643 3.2952 -2.07988
-3.643 3.0943 -2.07988
-3.62556 2.89237 -2.06903
-3.60808 2.6901 -2.05814
-3.59058 2.48748 -2.04723
-3.59058 2.28605 -2.04723
-3.55549 2.08117 -2.02536
-3.55549 1.87939 -2.02536
-3.53789 1.67553 -2.0144
-3.50261 1.46904 -1.99242
-3.46721 1.26184 -1.97036
-3.46721 1.05918 -1.97036
-3.41388 0.848066 -1.93712
-3.39604 0.641868 -1.92601
-3.32435 0.425703 -1.88135
-3.25217 0.20801 -1.83637
-3.21588 -0.00400066 -1.81376
-3.16121 -0.22057 -1.7797
-3.48067 4.3001 -2.26698
-3.51424 4.0988 -2.29075
-3.5477 3.8982 -2.31443
-3.61426 3.69893 -2.36157
-3.56438 3.49759 -2.32625
-3.53098 3.29587 -2.3026
-3.49747 3.09345 -2.27887
-3.48067 2.89135 -2.26698
-3.46384 2.6889 -2.25506
-3.44698 2.4861 -2.24312
-3.43009 2.28294 -2.23117
-3.41317 2.07943 -2.21918
-3.41317 1.87748 -2.21918
-3.37925 1.67135 -2.19516
-3.36224 1.46677 -2.18313
-3.3452 1.26184 -2.17107
-3.29391 1.05126 -2.13475
-3.24235 0.839567 -2.09824
-3.20783 0.62979 -2.0738
-3.2251 0.42891 -2.08603
-3.2251 0.225003 -2.08603
-3.13841 0.00320196 -2.02465
-3.06851 -0.216763 -1.97515
-3.32507 4.3003 -2.45507
-3.34117 4.09885 -2.46796
-3.34117 3.8976 -2.46796
-3.34117 3.69635 -2.46796
-3.34117 3.4951 -2.46796
-3.34117 3.29385 -2.46796
-3.32507 3.09175 -2.45507
-3.30894 2.8893 -2.44217
-3.32507 2.6889 -2.45507
-3.29278 2.48472 -2.42923
-3.2766 2.28139 -2.41627
-3.2766 2.07943 -2.41627
-3.24415 1.87365 -2.3903
-3.24415 1.67135 -2.3903
-3.21159 1.46449 -2.36423
-3.17891 1.25692 -2.33808
-3.14612 1.04861 -2.31182
-3.09671 0.836724 -2.27227
-3.08018 0.62979 -2.25904
-3.01378 0.412818 -2.20589
-2.98041 0.20117 -2.17918
-2.99711 -0.000396252 -2.19255
-2.93012 -0.22057 -2.13893
-3.14407 4.3007 -2.61886
-3.19009 4.09885 -2.66037
-3.15943 3.8973 -2.63272
-3.17477 3.69603 -2.64655
-3.15943 3.4941 -2.63272
-3.15943 3.2925 -2.63272
-3.14407 3.09005 -2.61886
-3.12868 2.88724 -2.60497
-3.12868 2.68529 -2.60497
-3.12868 2.48334 -2.60497
-3.11326 2.27983 -2.59107
-3.09781 2.07596 -2.57713
-3.08233 1.87173 -2.56318
-3.06683 1.66715 -2.5492
-3.06683 1.46449 -2.5492
-3.00456 1.25198 -2.49303
-2.97326 1.04329 -2.46479
-2.94184 0.833876 -2.43646
-2.91033 0.623718 -2.40802
-2.86283 0.409582 -2.36519
-2.84694 0.20117 -2.35086
-2.79912 -0.014852 -2.30771
-2.71883 -0.239702 -2.23529
-2.96989 4.3009 -2.78465
-2.99896 4.0989 -2.81416
-2.98444 3.89715 -2.79942
-2.98444 3.69537 -2.79942
-2.96989 3.4931 -2.78465
-2.96989 3.29114 -2.78465
-2.96989 3.08919 -2.78465
-2.96989 2.88724 -2.78465
-2.96989 2.68529 -2.78465
-2.94072 2.48057 -2.75504
-2.94072 2.27826 -2.75504
-2.94072 2.07596 -2.75504
-2.91144 1.86981 -2.72532
-2.88206 1.66294 -2.69551
-2.85258 1.45535 -2.66559
-2.85258 1.25198 -2.66559
-2.823 1.04329 -2.63555
-2.76351 0.828164 -2.57518
-2.73362 0.617626 -2.54483
-2.70361 0.406341 -2.51438
-2.6735 0.194306 -2.48382
-2.61296 -0.0257621 -2.42236
-2.56727 -0.243549 -2.37599
-2.8008 4.3009 -2.95466
-2.82809 4.0989 -2.98582
-2.88237 3.8979 -3.04784
-2.88237 3.697 -3.04784
-2.85528 3.4951 -3.01688
-2.81446 3.29182 -2.97025
-2.8008 3.08919 -2.95466
-2.8008 2.88724 -2.95466
-2.78713 2.68408 -2.93903
-2.77342 2.48057 -2.92339
-2.74595 2.27513 -2.892
-2.74595 2.07247 -2.892
-2.71838 1.86596 -2.8605
-2.70456 1.66083 -2.84471
-2.69071 1.45535 -2.82889
-2.67684 1.2495 -2.81305
-2.63508 1.03796 -2.76535
-2.60712 0.828164 -2.7334
-2.56499 0.614571 -2.68528
-2.52264 0.399841 -2.6369
-2.49428 0.187417 -2.60451
-2.46581 -0.0257621 -2.57199
-2.40859 -0.247403 -2.50662
-2.59651 4.30131 -3.08158
-2.62201 4.09895 -3.11442
-2.62201 3.897 -3.11442
-2.60927 3.69472 -3.09802
-2.60927 3.49259 -3.09802
-2.60927 3.29047 -3.09802
-2.60927 3.08834 -3.09802
-2.60927 2.88621 -3.09802
-2.62201 2.68529 -3.11442
-2.58373 2.47918 -3.06513
-2.57094 2.27513 -3.04863
-2.55812 2.07072 -3.03211
-2.54526 1.86596 -3.01557
-2.53239 1.66083 -2.999
-2.50659 1.45305 -2.96576
-2.46772 1.24205 -2.91568
-2.46772 1.03796 -2.91568
-2.41556 0.822433 -2.84849
-2.38934 0.611511 -2.81472
-2.36302 0.399841 -2.78084
-2.32338 0.183964 -2.72978
-2.28353 -0.0330672 -2.67844
-2.23006 -0.255131 -2.60957
-2.39881 4.30151 -3.21192
-2.4341 4.09895 -3.26338
-2.41059 3.8967 -3.2291
-2.42237 3.69472 -3.24625
-2.41059 3.49209 -3.2291
-2.41059 3.28978 -3.2291
-2.41059 3.08748 -3.2291
-2.39881 2.88414 -3.21192
-2.387 2.68044 -3.1947
-2.37517 2.47639 -3.17746
-2.37517 2.27356 -3.17746
-2.36333 2.06897 -3.16018
-2.33956 1.86209 -3.12554
-2.32764 1.6566 -3.10818
-2.31571 1.45075 -3.09078
-2.29178 1.24205 -3.0559
-2.26777 1.03261 -3.0209
-2.24367 0.822433 -2.98576
-2.19522 0.605376 -2.91513
-2.17086 0.393317 -2.87962
-2.14642 0.180504 -2.84399
-2.09728 -0.0403986 -2.77234
-2.07256 -0.255131 -2.73633
-2.19479 4.30171 -3.32968
-2.23777 4.09895 -3.40101
-2.20555 3.89655 -3.34757
-2.20555 3.69407 -3.34757
-2.21632 3.49209 -3.36541
-2.19479 3.28842 -3.32968
-2.19479 3.08576 -3.32968
-2.19479 2.8831 -3.32968
-2.19479 2.68044 -3.32968
-2.17318 2.475 -3.29383
-2.17318 2.27198 -3.29383
-2.16235 2.06721 -3.27586
-2.1515 1.86209 -3.25786
-2.12974 1.65448 -3.22175
-2.11884 1.44844 -3.20365
-2.10791 1.24205 -3.18552
-2.07501 1.02993 -3.13093
-2.04194 0.816682 -3.07605
-2.01979 0.605376 -3.03931
-1.98643 0.390047 -2.98394
-1.95289 0.173567 -2.92828
-1.93042 -0.0403986 -2.891
-1.88526 -0.262887 -2.81605
-1.98524 4.30191 -3.4346
-2.02401 4.09898 -3.50847
-1.99496 3.89639 -3.45312
-1.99496 3.69374 -3.45312
-1.99496 3.49108 -3.45312
-1.99496 3.28842 -3.45312
-1.99496 3.08576 -3.45312
-1.98524 2.88206 -3.4346
-1.97549 2.67801 -3.41606
-1.97549 2.475 -3.41606
-1.95598 2.26883 -3.37886
-1.95598 2.06546 -3.37886
-1.93638 1.8582 -3.34154
-1.93638 1.65448 -3.34154
-1.91672 1.44614 -3.30409
-1.90686 1.23956 -3.28531
-1.87718 1.02724 -3.22878
-1.85731 0.816682 -3.19093
-1.83737 0.605376 -3.15294
-1.80731 0.390047 -3.09571
-1.77711 0.173567 -3.03817
-1.74674 -0.044075 -2.98032
-1.7162 -0.262887 -2.92216
-1.77097 4.30212 -3.52643
-1.80539 4.099 -3.60258
-1.7968 3.89655 -3.5836
-1.7882 3.69374 -3.56458
-1.7882 3.49108 -3.56458
-1.7882 3.28842 -3.56458
-1.77959 3.0849 -3.54552
-1.77097 2.88102 -3.52643
-1.77097 2.67801 -3.52643
-1.76232 2.4736 -3.50731
-1.75366 2.26883 -3.48816
-1.74499 2.0637 -3.46897
-1.7363 1.8582 -3.44974
-1.71887 1.65022 -3.4112
-1.71887 1.44614 -3.4112
-1.70139 1.23706 -3.37251
-1.66623 1.02185 -3.29474
-1.64856 0.81091 -3.25564
-1.63082 0.599217 -3.21641
-1.61302 0.386771 -3.17703
-1.57724 0.166605 -3.09786
-1.55926 -0.0477562 -3.05806
-1.53214 -0.266776 -2.9981
-1.56029 4.30212 -3.62458
-1.58273 4.09903 -3.68316
-1.5976 3.89685 -3.72205
-1.56778 3.69341 -3.64413
-1.56778 3.49057 -3.64413
-1.56778 3.28774 -3.64413
-1.56029 3.08404 -3.62458
-1.56029 2.88102 -3.62458
-1.54528 2.67557 -3.58534
-1.54528 2.4722 -3.58534
-1.54528 2.26883 -3.58534
-1.53021 2.06193 -3.54598
-1.52265 1.85626 -3.52624
-1.51508 1.65022 -3.50647
-1.4999 1.4415 -3.46683
-1.4999 1.23706 -3.46683
-1.46938 1.02185 -3.38711
-1.45404 0.81091 -3.34705
-1.43865 0.599217 -3.30683
-1.40769 0.380202 -3.22599
-1.39213 0.166605 -3.18534
-1.36084 -0.055141 -3.10362
-1.34512 -0.270671 -3.06254
-1.33787 4.30232 -3.69014
-1.36944 4.099 -3.78981
-1.36944 3.8967 -3.78981
-1.35684 3.69374 -3.75005
-1.35684 3.49108 -3.75005
-1.34421 3.28705 -3.71014
-1.34421 3.08404 -3.71014
-1.34421 2.88102 -3.71014
