# .PCD v0.7 - Point Cloud Data file format
VERSION 0.7
FIELDS x y z rgb
SIZE 4 4 4 4
TYPE F F F F
COUNT 1 1 1 1
WIDTH 1232
HEIGHT 1
VIEWPOINT 0 0 0 1 0 0 0
POINTS 1232
DATA ascii
-1.3842227 4.9714522 2.6047103 7250090
-1.3842227 4.9019022 2.6047103 7183539
-1.3842227 4.8323526 2.6047103 6987194
-1.3768141 4.7620783 2.5835528 6856108
-1.3842227 4.693253 2.6047103 6920875
-1.3842227 4.623703 2.6047103 7051436
-1.3842227 4.554153 2.6047103 6592172
-1.3842227 4.4846029 2.6047103 6853545
-1.3842227 4.4150529 2.6047103 6787500
-1.3768141 4.3444047 2.5835528 7243415
-1.3768141 4.2747927 2.5835528 7497813
-1.369392 4.2039552 2.5623572 8216365
-1.369392 4.1342802 2.5623572 7887398
-1.369392 4.0646052 2.5623572 8082719
-1.369392 3.9949303 2.5623572 8016902
-1.3619565 3.9237781 2.5411229 8083475
-1.354508 3.8524973 2.5198517 8083476
-1.354508 3.7826972 2.5198517 7753749
-1.3470457 3.7112255 2.4985409 7557665
-1.3395705 3.6396251 2.4771926 7557387
-1.3395705 3.5696993 2.4771926 7622922
-1.3320813 3.4979067 2.4558053 7490577
-1.3320813 3.4279177 2.4558053 7032866
-1.3320813 3.3579288 2.4558053 7040867
-1.3245794 3.2858801 2.4343801 5863299
-1.3245794 3.2158282 2.4343801 5405316
-1.3170629 3.1435859 2.4129155 5733244
-1.3170629 3.0734706 2.4129155 5666943
-1.3019904 2.9987099 2.3698699 5667195
-1.2944337 2.9260747 2.3482885 5405061
-1.2944337 2.8557689 2.3482885 5535358
-1.2868631 2.7829385 2.3266687 5273212
-1.27168 2.7073777 2.2833097 5404289
-1.2640685 2.6342142 2.2615719 5468790
-1.256443 2.5609169 2.2397943 5992825
-1.2488035 2.4874864 2.2179763 5271155
-1.233482 2.4110417 2.1742215 4942967
-1.2181053 2.3343184 2.1303067 4942967
-1.2026713 2.2573135 2.0862312 5138542
-1.1871819 2.1800263 2.0419943 4876650
-1.1794149 2.105639 2.0198145 1983557
-1.1560299 2.0245976 1.9530309 3363392
-1.1403676 1.9464536 1.908303 3428917
-1.1246485 1.8680201 1.8634104 2836788
-1.1088703 1.7892959 1.8183508 2508099
-1.0930339 1.7102802 1.7731241 2244666
-1.0771384 1.6309705 1.7277293 4018772
-1.0691684 1.5551038 1.7049686 4217685
-1.0451694 1.4714632 1.6364316 4740706
-1.0290952 1.3912625 1.5905266 4544603
-1.0129609 1.310761 1.5444494 4217184
-0.99676663 1.2299581 1.4982003 4283753
-0.98051053 1.1488509 1.4517765 4480865
-0.96419358 1.0674381 1.4051783 4547182
-0.95601219 0.99003935 1.3818135 5006701
-0.95601219 0.91688395 1.3818135 5138036
-0.95601219 0.84372902 1.3818135 5596276
-0.94781512 0.76604557 1.3584039 4547965
-0.94781512 0.69282198 1.3584039 4679542
-0.93960273 0.61492252 1.3349506 5073016
-0.92313153 0.53211451 1.2879111 4216936
-1.4167202 6.0171051 2.4338934 5587281
-1.4411031 5.9461627 2.4970889 11117232
-1.4572861 5.8758755 2.5390313 13215918
-1.4572861 5.806263 2.5390313 13543599
-1.4572861 5.7366509 2.5390313 13739948
-1.4572861 5.6670384 2.5390313 14002868
-1.4572861 5.5974264 2.5390313 14068915
-1.4572861 5.5278139 2.5390313 14069167
-1.4572861 5.4582014 2.5390313 14265514
-1.4572861 5.3885894 2.5390313 14462131
-1.4572861 5.3189769 2.5390313 14330545
-1.4492019 5.2490768 2.518079 14527412
-1.4492019 5.1794024 2.518079 14986916
-1.4492019 5.1097269 2.518079 14854576
-1.4492019 5.0400524 2.518079 14986163
-1.4492019 4.9703774 2.518079 15182507
-1.4492019 4.900703 2.518079 15378602
-1.4492019 4.831028 2.518079 15641001
-1.4492019 4.761353 2.518079 16165283
-1.4492019 4.6916785 2.518079 16230817
-1.4492019 4.622004 2.518079 16165020
-1.4492019 4.5523291 2.518079 16623003
-1.4492019 4.4826541 2.518079 16753564
-1.4492019 4.4129791 2.518079 16753047
-1.4492019 4.3433046 2.518079 16752520
-1.4492019 4.2736297 2.518079 16682620
-1.4492019 4.2039552 2.518079 16412457
-1.4411031 4.1329904 2.4970889 16740096
-1.4411031 4.0632529 2.4970889 16739584
-1.4329901 3.9920974 2.4760623 16740352
-1.4329901 3.9222975 2.4760623 16739584
-1.4329901 3.8524973 2.4760623 16738304
-1.424862 3.7810884 2.4549961 16739072
-1.4167202 3.7095509 2.4338934 16738048
-1.4167202 3.6396251 2.4338934 16738304
-1.4085628 3.5678954 2.4127519 16738816
-1.4085628 3.4979067 2.4127519 16739840
-1.4003915 3.4259844 2.391573 16546107
-1.3922045 3.3539319 2.3703551 16748902
-1.3840042 3.2817497 2.3490989 16749160
-1.3840042 3.2115712 2.3490989 16749684
-1.3840042 3.1413922 2.3490989 16748903
-1.3757875 3.0689521 2.3278041 16749674
-1.3675566 2.9963808 2.3064706 16748400
-1.3593105 2.9236777 2.2850995 16749673
-1.3510495 2.8508427 2.2636881 16750693
-1.342773 2.7778754 2.2422385 16751463
-1.3344826 2.7047753 2.2207503 16751199
-1.3178557 2.6288667 2.1776562 16751458
-1.3095187 2.5554307 2.1560493 16750690
-1.2928008 2.4790409 2.1127188 16751207
-1.2844188 2.405267 2.0909939 16751452
-1.2676079 2.3283923 2.0474253 16751960
-1.2591799 2.254277 2.0255806 16751437
-1.2422768 2.1769133 1.9817715 16750938
-1.2253121 2.0992649 1.9378018 16752730
-1.2168057 2.0245976 1.9157555 16418620
-1.1997463 1.9464536 1.8715415 15231774
-1.1911935 1.871438 1.8493736 15295744
-1.1654388 1.7892959 1.7826231 15363607
-1.1481897 1.7102802 1.7379161 16743497
-1.1308761 1.6309705 1.6930431 16745029
-1.1047852 1.5476203 1.6254196 16746550
-1.0873092 1.4676366 1.5801269 16747826
-1.0697687 1.3873529 1.5346648 16747312
-1.0521618 1.3067698 1.489032 16748590
-1.0256282 1.2217999 1.4202616 16748628
-1.0078555 1.1405249 1.3741989 16751174
-0.99894428 1.0631943 1.3511026 16753491
-0.98107094 0.98138952 1.3047782 16756067
-0.97210902 0.90369034 1.281551 16757358
-0.97210902 0.83032751 1.281551 16758138
-0.96313024 0.75241089 1.2582792 16758891
-0.95413423 0.6743474 1.2349634 16758899
-0.94512087 0.59613514 1.2116033 16759925
-0.94512087 0.52256393 1.2116033 16752216
-1.4924715 6.0171051 2.3881919 1592676
-1.5275817 5.9458251 2.4713161 6399948
-1.53632 5.8758755 2.4920039 6923461
-1.53632 5.806263 2.4920039 7516105
-1.53632 5.7366509 2.4920039 7450563
-1.53632 5.6670384 2.4920039 7450819
-1.53632 5.5974264 2.4920039 7581128
-1.53632 5.5278139 2.4920039 7777727
-1.53632 5.4582014 2.4920039 7711688
-1.53632 5.3885894 2.4920039 7711686
-1.5275817 5.3187518 2.4713161 7646912
-1.5275817 5.2490768 2.4713161 7711945
-1.53632 5.1797523 2.4920039 7385281
-1.53632 5.1101398 2.4920039 7515334
-1.53632 5.0405278 2.4920039 7515334
-1.53632 4.9709153 2.4920039 7645631
-1.53632 4.9013033 2.4920039 7449019
-1.5275817 4.831028 2.4713161 7711685
-1.5275817 4.761353 2.4713161 7186625
-1.53632 4.6924663 2.4920039 7186100
-1.53632 4.6228542 2.4920039 7250360
-1.53632 4.5532417 2.4920039 7250611
-1.53632 4.4836292 2.4920039 7315891
-1.53632 4.4140172 2.4920039 6790841
-1.53632 4.3444047 2.4920039 6789288
-1.53632 4.2747927 2.4920039 7378343
-1.53632 4.2051802 2.4920039 6385253
-1.53632 4.1355677 2.4920039 7562047
-1.5188274 4.0632529 2.4505906 8020286
-1.5275817 3.9949303 2.4713161 8215070
-1.5188274 3.9237781 2.4505906 8084250
-1.5188274 3.8540406 2.4505906 8150019
-1.510058 3.7826972 2.4298289 8214795
-1.510058 3.7128971 2.4298289 7886618
-1.5012723 3.6413622 2.4090288 7756057
-1.5012723 3.5714993 2.4090288 7229728
-1.4924715 3.4997735 2.3881919 5395530
-1.4924715 3.4298475 2.3881919 6454404
-1.4836543 3.3579288 2.367317 6064017
-1.4836543 3.2879398 2.367317 6063242
-1.4659723 3.2137012 2.3254552 5932949
-1.4659723 3.1435859 2.3254552 6324875
-1.4659723 3.0734706 2.3254552 5931154
-1.4571083 3.0010347 2.3044672 5669269
-1.4482266 2.9284673 2.2834408 5998467
-1.4393297 2.8557689 2.2623763 5669261
-1.4304165 2.7829385 2.2412748 5864595
-1.4214871 2.7099755 2.2201338 5667470
-1.4125408 2.6368806 2.1989546 5732231
-1.3946016 2.5609169 2.1564817 5798280
-1.3856072 2.4874864 2.1351867 5405062
-1.3675685 2.4110417 2.0924802 5469826
-1.3585249 2.3372734 2.0710685 5403777
-1.3403882 2.2603443 2.0281279 5337980
-1.3312937 2.1862352 2.0065982 5731200
-1.3130572 2.1088176 1.9634212 5337978
-1.2947518 2.0311151 1.920085 5271151
-1.2763808 1.9531264 1.8765894 4287339
-1.2579408 1.8748503 1.8329331 4283749
-1.2394339 1.7962847 1.7891161 4153960
-1.2208574 1.7174277 1.745136 4679540
-1.2022125 1.6382785 1.7009931 4678255
-1.1741147 1.5551038 1.6344705 4612461
-1.1552957 1.4752831 1.5899153 4677993
-1.1364057 1.3951645 1.5451939 4284779
-1.1174457 1.3147454 1.5003053 4611951
-1.0888726 1.2299581 1.4326564 4285811
-1.0793115 1.1530023 1.410022 4220780
-1.0601372 1.0716739 1.3646255 4615289
-1.0408906 0.99003935 1.3190583 5402238
-1.0505229 0.92126513 1.3418633 4812157
-1.0408906 0.84372902 1.3190583 5075330
-1.0312397 0.76604557 1.2962097 5074817
-1.0215709 0.68821621 1.2733182 5403008
-1.0215709 0.61492252 1.2733182 5206660
-1.0118839 0.53687668 1.250384 4089974
-1.576201 6.0167027 2.3606839 1459552
-1.6138371 5.945488 2.4425178 5477555
-1.6232039 5.8756018 2.4628839 6069942
-1.6232039 5.8060513 2.4628839 6922420
-1.6232039 5.7365017 2.4628839 6988470
-1.6232039 5.6669517 2.4628839 6922927
-1.6232039 5.5974016 2.4628839 7119543
-1.6232039 5.5278521 2.4628839 6988461
-1.6232039 5.4583015 2.4628839 7119277
-1.6232039 5.388752 2.4628839 6857140
-1.6232039 5.3192019 2.4628839 6987188
-1.6232039 5.2496519 2.4628839 7118253
-1.6232039 5.1801023 2.4628839 7315884
-1.6232039 5.1105518 2.4628839 6856874
-1.6232039 5.0410023 2.4628839 6986926
-1.6232039 4.9714522 2.4628839 6855346
-1.6232039 4.9019022 2.4628839 6920621
-1.6232039 4.8323526 2.4628839 6789544
-1.6232039 4.7628026 2.4628839 7051177
-1.6232039 4.693253 2.4628839 6658473
-1.6232039 4.623703 2.4628839 6722733
-1.6232039 4.554153 2.4628839 6460843
-1.6232039 4.4846029 2.4628839 6525863
-1.6232039 4.4150529 2.4628839 6721954
-1.6232039 4.3455029 2.4628839 6721940
-1.6232039 4.2759533 2.4628839 6328475
-1.6232039 4.2064033 2.4628839 7046789
-1.6138371 4.1355677 2.4425178 6449769
-1.6044532 4.0646052 2.4221144 5593415
-1.6044532 3.9949303 2.4221144 6640947
-1.5950524 3.9237781 2.4016743 7100214
-1.5950524 3.8540406 2.4016743 7493407
-1.5950524 3.7843032 2.4016743 7361552
-1.5856357 3.7128971 2.3811982 6575419
-1.5856357 3.6430969 2.3811982 6510915
-1.576201 3.5714993 2.3606839 5856067
-1.576201 3.5016365 2.3606839 6977649
-1.576201 3.4317734 2.3606839 6258056
-1.56675 3.3599217 2.3401339 6128524
-1.5572808 3.2879398 2.3195467 5669255
-1.5477964 3.2158282 2.2989223 5930900
-1.5477964 3.145776 2.2989223 5669002
-1.5477964 3.0757241 2.2989223 5537416
-1.5382932 3.0033553 2.2782605 5667980
-1.5192367 2.9284673 2.236824 5536651
-1.5096821 2.8557689 2.2160499 5406342
-1.5096821 2.7854631 2.2160499 5405828
-1.4905213 2.7099755 2.1743884 5601425
-1.4809147 2.6368806 2.1535006 5534863
-1.4712913 2.5636523 2.1325755 5273731
-1.4519914 2.4874864 2.09061 5271938
-1.4326202 2.4110417 2.0484912 5010559
-1.4229085 2.3372734 2.0273743 5533305
-1.4131784 2.2633696 2.0062187 5468015
-1.3936651 2.1862352 1.9637916 5074299
-1.3838825 2.1119897 1.9425191 4288888
-1.3642615 2.0343647 1.899858 4943476
-1.3445699 1.956454 1.85704 4678759
-1.3248042 1.8782556 1.8140637 4613475
-1.3049661 1.7997689 1.7709286 4547424
-1.285054 1.7209916 1.727634 4482159
-1.2550488 1.6382785 1.6623913 4154224
-1.2349513 1.558835 1.6186942 4284523
-1.2046657 1.4752831 1.5528424 4480619
-1.1843807 1.3951645 1.5087361 4349537
-1.1640201 1.3147454 1.4644651 4153698
-1.1435823 1.234026 1.4200282 4546155
-1.1230687 1.1530023 1.3754243 4875374
-1.1230687 1.0801215 1.3754243 4875379
-1.102478 0.99865627 1.3306524 5009008
-1.0818095 0.91688395 1.2857122 5009275
-1.0818095 0.84372902 1.2857122 5140605
-1.0818095 0.77057314 1.2857122 4484214
-1.0818095 0.69741821 1.2857122 5007739
-1.0714456 0.61959743 1.2631782 4943225
-1.0506601 0.53687668 1.2179829 4351346
-1.6596487 6.0163012 2.3302171 1266267
-1.699764 5.9451513 2.4106824 5020340
-1.7097476 5.8753281 2.4307089 6529469
-1.7097476 5.80584 2.4307089 6792381
-1.7197139 5.7362037 2.4506993 7121076
-1.7197139 5.6667781 2.4506993 7120573
-1.7197139 5.5973525 2.4506993 7185342
-1.7097476 5.5278897 2.4307089 7185845
-1.7197139 5.4585013 2.4506993 7120059
-1.7097476 5.3889141 2.4307089 6858171
-1.7097476 5.3194265 2.4307089 7120054
-1.7097476 5.249939 2.4307089 7119796
-1.7097476 5.1804514 2.4307089 7512504
-1.7097476 5.1109633 2.4307089 7185844
-1.7097476 5.0414758 2.4307089 6857913
-1.7097476 4.9719882 2.4307089 6726580
-1.699764 4.9019022 2.4106824 7120058
-1.699764 4.8323526 2.4106824 6858171
-1.7097476 4.763525 2.4307089 6857660
-1.7097476 4.6940374 2.4307089 6988471
-1.7097476 4.6245499 2.4307089 7315638
-1.7097476 4.5550623 2.4307089 7054003
-1.7097476 4.4855747 2.4307089 6988216
-1.7097476 4.4160872 2.4307089 7118518
-1.7097476 4.3465991 2.4307089 6921911
-1.699764 4.2759533 2.4106824 7119036
-1.699764 4.2064033 2.4106824 6856374
-1.689762 4.1355677 2.3906205 7313583
-1.689762 4.0659552 2.3906205 7902867
-1.689762 3.9963429 2.3906205 6977655
-1.6797421 3.9252555 2.3705223 6650231
-1.6797421 3.8555808 2.3705223 5398627
-1.6797421 3.7859058 2.3705223 5923420
-1.6596487 3.7128971 2.3302171 7112604
-1.6596487 3.6430969 2.3302171 7245980
-1.6596487 3.5732968 2.3302171 6590351
-1.6495742 3.5016365 2.3100092 6266030
-1.6495742 3.4317734 2.3100092 6395813
-1.6394824 3.3599217 2.2897666 6395305
-1.629371 3.2879398 2.2694867 6263455
-1.629371 3.2179511 2.2694867 6197930
-1.6192434 3.145776 2.2491705 6460320
-1.6192434 3.0757241 2.2491705 6131108
-1.6090962 3.0033553 2.2288172 6262180
-1.5989313 2.9308558 2.2084274 6261406
-1.5887474 2.8582251 2.188 6000031
-1.5785449 2.7854631 2.1675363 6196894
-1.5580851 2.7099755 2.126497 5868450
-1.5580851 2.6395423 2.126497 5998232
-1.5375512 2.5636523 2.0853088 5997721
-1.5272565 2.4902914 2.0646586 5538202
-1.5066092 2.4139216 2.0232441 5603986
-1.4858876 2.3372734 1.9816792 5603220
-1.4754981 2.2633696 1.9608397 5734020
-1.4546617 2.1862352 1.9190464 5602960
-1.4442157 2.1119897 1.8980919 5143696
-1.4232644 2.0343647 1.856068 5208462
-1.41276 1.9597754 1.8349979 5207930
-1.3811316 1.8782556 1.7715554 5140865
-1.3599484 1.7997689 1.7290647 5076856
-1.3386862 1.7209916 1.6864171 5336701
-1.3173456 1.6419222 1.6436111 5140346
-1.2851863 1.558835 1.5791047 5009018
-1.2636473 1.4790955 1.5358995 5139322
-1.2311869 1.3951645 1.4707893 4550269
-1.2203261 1.3187227 1.4490051 4550773
-1.198544 1.2380853 1.4053136 4878199
-1.1766808 1.157146 1.3614588 5141637
-1.1657176 1.0801215 1.3394692 5534606
-1.1437309 0.99865627 1.2953662 5536903
-1.1437309 0.92563868 1.2953662 5470343
-1.1327063 0.84817886 1.2732525 6126741
-1.1216611 0.77057314 1.2510973 5536919
-1.1216611 0.69741821 1.2510973 5471636
-1.1105944 0.61959743 1.2289001 5536914
-1.0883994 0.53687668 1.1843798 5207687
-1.7213193 6.0167027 2.257055 1004404
-1.7640196 5.945488 2.336364 4825017
-1.7746468 5.8756018 2.3561022 6793157
-1.7746468 5.8060513 2.3561022 7187135
-1.7746468 5.7365017 2.3561022 7186372
-1.7852544 5.6668649 2.3758051 7317431
-1.7852544 5.5973773 2.3758051 7513285
-1.7746468 5.5278521 2.3561022 7251907
-1.7852544 5.4584017 2.3758051 7251394
-1.7852544 5.3889141 2.3758051 7119803
-1.7852544 5.3194265 2.3758051 7251392
-1.7852544 5.249939 2.3758051 7120056
-1.7746468 5.1801023 2.3561022 6989498
-1.7852544 5.1109633 2.3758051 6989746
-1.7852544 5.0414758 2.3758051 6988727
-1.7746468 4.9714522 2.3561022 6857648
-1.7746468 4.9019022 2.3561022 7250351
-1.7746468 4.8323526 2.3561022 7053496
-1.7746468 4.7628026 2.3561022 7185334
-1.7746468 4.693253 2.3561022 6988469
-1.7746468 4.623703 2.3561022 6726330
-1.7746468 4.554153 2.3561022 7053748
-1.7852544 4.4855747 2.3758051 7184310
-1.7746468 4.4150529 2.3561022 6726066
-1.7640196 4.3444047 2.336364 6857400
-1.7640196 4.2747927 2.336364 7380667
-1.7640196 4.2051802 2.336364 7249584
-1.7640196 4.1355677 2.336364 7118008
-1.7640196 4.0659552 2.336364 7051949
-1.7533733 3.9949303 2.3165903 7051953
-1.7533733 3.9252555 2.3165903 7315634
-1.7427074 3.8540406 2.2967811 6724519
-1.7427074 3.7843032 2.2967811 7577002
-1.7320236 3.7128971 2.2769363 6526898
-1.7320236 3.6430969 2.2769363 6461100
-1.7213193 3.5714993 2.257055 7181730
-1.7105967 3.4997735 2.2371392 7052202
-1.7105967 3.4298475 2.2371392 6722985
-1.7105967 3.3599217 2.2371392 6263726
-1.6998534 3.2879398 2.2171869 6591145
-1.6890928 3.2158282 2.1971991 6525354
-1.6890928 3.145776 2.1971991 6459555
-1.678311 3.0734706 2.1771746 6197162
-1.6675107 3.0010347 2.1571143 6393762
-1.6566901 2.9284673 2.1370168 6655385
-1.6566901 2.8582251 2.1370168 6261916
-1.6458499 2.7854631 2.1168835 6196633
-1.6241112 2.7099755 2.0765071 6588311
-1.6132119 2.6368806 2.0562637 6063261
-1.6022937 2.5636523 2.035984 6062994
-1.5803967 2.4874864 1.9953134 6193553
-1.5694175 2.4139216 1.9749219 5604240
-1.5474006 2.3372734 1.9340285 5537171
-1.5363615 2.2633696 1.9135258 5865095
-1.5142226 2.1862352 1.8724074 5471625
-1.4920037 2.1088176 1.8311381 5274508
-1.4808626 2.0343647 1.8104464 5339534
-1.4585212 1.956454 1.7689494 5076102
-1.4360961 1.8782556 1.7272989 5338242
-1.4135885 1.7997689 1.6854944 5403010
-1.3909972 1.7209916 1.6435357 5336447
-1.3683226 1.6419222 1.6014211 5270907
-1.3341531 1.558835 1.5379567 5205119
-1.3112676 1.4790955 1.4954495 5008245
-1.288296 1.3990583 1.4527838 4287610
-1.2652382 1.3187227 1.4099587 5073525
-1.2420946 1.2380853 1.366973 4943482
-1.2188647 1.157146 1.3238266 5599870
-1.1955466 1.075902 1.2805173 5405064
-1.1838549 0.99865627 1.2588016 5666952
-1.1721412 0.92126513 1.237045 5733771
-1.1721412 0.84817886 1.237045 5601173
-1.1604055 0.77057314 1.2152478 5470866
-1.148647 0.69282198 1.193409 5734037
-1.148647 0.61959743 1.193409 5930123
-1.1250647 0.53687668 1.149608 5403282
-1.8026893 6.0163012 2.2214086 16721
-1.836536 5.945488 2.2798021 4755106
-1.8589993 5.8753281 2.3185565 6132118
-1.8589993 5.80584 2.3185565 6657442
-1.8589993 5.7363524 2.3185565 6920603
-1.8589993 5.6668649 2.3185565 6984366
-1.8589993 5.5973773 2.3185565 6854314
-1.8589993 5.5278897 2.3185565 7050392
-1.8589993 5.4584017 2.3185565 6657439
-1.8589993 5.3889141 2.3185565 6919334
-1.8589993 5.3194265 2.3185565 6723489
-1.8589993 5.249939 2.3185565 7181212
-1.8589993 5.1804514 2.3185565 6395818
-1.8589993 5.1109633 2.3185565 6592165
-1.8589993 5.0414758 2.3185565 6591640
-1.8589993 4.9719882 2.3185565 6067610
-1.8589993 4.9025006 2.3185565 6722459
-1.8589993 4.8330131 2.3185565 6395040
-1.8589993 4.763525 2.3185565 6983835
-1.8589993 4.6940374 2.3185565 6852249
-1.8589993 4.6245499 2.3185565 7180700
-1.8589993 4.5550623 2.3185565 6328738
-1.8589993 4.4855747 2.3185565 6721941
-1.847778 4.4150529 2.2991965 6394528
-1.847778 4.3455029 2.2991965 6460310
-1.847778 4.2759533 2.2991965 6982816
-1.847778 4.2064033 2.2991965 6394517
-1.847778 4.1368532 2.2991965 6459289
-1.836536 4.0659552 2.2798021 6786452
-1.836536 3.9963429 2.2798021 6327192
-1.825274 3.9252555 2.2603726 6590357
-1.825274 3.8555808 2.2603726 6720659
-1.825274 3.7859058 2.2603726 6589593
-1.8139912 3.7145658 2.2409077 6523791
-1.8026893 3.6430969 2.2214086 6524053
-1.7913657 3.5714993 2.2018733 6260625
-1.7913657 3.5016365 2.2018733 6195605
-1.780023 3.4298475 2.1823041 6194830
-1.780023 3.3599217 2.1823041 6195591
-1.7686582 3.2879398 2.1626995 6063501
-1.7686582 3.2179511 2.1626995 5998477
-1.757275 3.145776 2.143059 6193804
-1.7458696 3.0734706 2.1233833 5407368
-1.7344446 3.0010347 2.103672 5800331
-1.7344446 2.9308558 2.103672 5996418
-1.7229981 2.8582251 2.0839243 6061954
-1.7115308 2.7854631 2.0641415 6060938
-1.6885344 2.7099755 2.0244679 5538444
-1.6770047 2.6368806 2.0045769 5536133
-1.6654549 2.5636523 1.9846503 5667200
-1.6538837 2.4902914 1.9646872 5731702
-1.6306769 2.4139216 1.9246508 5469309
-1.6190423 2.3402228 1.9045786 5402996
-1.5957086 2.2633696 1.8643233 5796466
-1.5722891 2.1862352 1.8239206 5469052
-1.548785 2.1088176 1.7833695 5337466
-1.5369995 2.0343647 1.7630379 4812407
-1.5133656 1.956454 1.7222632 4812151
-1.4896432 1.8782556 1.6813377 5531760
-1.4538964 1.7962847 1.6196661 4549232
-1.4419357 1.7209916 1.5990325 4809840
-1.4179494 1.6419222 1.5576509 4547435
-1.3818032 1.558835 1.4952911 5005675
-1.3575938 1.4790955 1.4535238 4743520
-1.3332933 1.3990583 1.4116005 4808804
-1.2966726 1.3147454 1.3484218 4677480
-1.2721436 1.234026 1.3061055 4612199
-1.2598456 1.157146 1.2848878 4482416
-1.2351787 1.075902 1.2423325 4614006
-1.2228106 0.99865627 1.2209946 5074810
-1.2104193 0.92126513 1.1996168 5336961
-1.1980047 0.84372902 1.1781989 4879484
-1.1980047 0.77057314 1.1781989 4878204
-1.1855662 0.69282198 1.1567402 5337218
-1.1855662 0.61959743 1.1567402 5271672
-1.1606196 0.53687668 1.1137015 5007985
-1.871576 6.0163012 2.1636887 1914180
-1.9190859 5.9451513 2.2400219 4290696
-1.942713 5.8750548 2.2779837 5800069
-1.9544957 5.8054185 2.2969139 6193021
-1.9544957 5.7360549 2.2969139 5800314
-1.9544957 5.6666918 2.2969139 5668480
-1.9544957 5.5973282 2.2969139 6193546
-1.9544957 5.5279651 2.2969139 6389642
-1.942713 5.4585013 2.2779837 6324607
-1.942713 5.3890762 2.2779837 6454920
-1.9544957 5.3198743 2.2969139 5996925
-1.9544957 5.2505112 2.2969139 6192517
-1.942713 5.1807995 2.2779837 5735031
-1.942713 5.1113739 2.2779837 6193281
-1.9544957 5.0424204 2.2969139 6126718
-1.942713 4.9725227 2.2779837 6062704
-1.942713 4.9030976 2.2779837 5996926
-1.942713 4.833672 2.2779837 6127992
-1.942713 4.7642465 2.2779837 5996155
-1.942713 4.6948214 2.2779837 5864829
-1.942713 4.6253958 2.2779837 5865086
-1.942713 4.5559702 2.2779837 5799292
-1.942713 4.4865446 2.2779837 5929603
-1.9309096 4.4160872 2.2590199 5930119
-1.942713 4.3476934 2.2779837 6061708
-1.9309096 4.2771115 2.2590199 6061189
-1.9190859 4.2064033 2.2400219 5995901
-1.9190859 4.1368532 2.2400219 5799556
-1.9190859 4.0673032 2.2400219 5930621
-1.9190859 3.9977531 2.2400219 5667451
-1.9190859 3.9282033 2.2400219 5733754
-1.9072402 3.8571186 2.2209902 5601660
-1.9072402 3.7875061 2.2209902 5600901
-1.8953733 3.7162311 2.2019238 5666685
-1.8953733 3.6465564 2.2019238 5798774
-1.871576 3.5732968 2.1636887 5601149
-1.871576 3.5034966 2.1636887 5404283
-1.8596443 3.4317734 2.1445186 5665914
-1.8476924 3.3599217 2.1253154 5469814
-1.8476924 3.2899957 2.1253154 5402993
-1.8357176 3.2179511 2.1060772 5469048
-1.8357176 3.1479619 2.1060772 5337461
-1.8237228 3.0757241 2.0868042 5009787
-1.8117051 3.0033553 2.0674963 5533046
-1.7996666 2.9308558 2.0481536 5205879
-1.7996666 2.860677 2.0481536 5336177
-1.7876055 2.7879829 2.0287752 4878190
-1.7634184 2.7125685 1.9899145 5074537
-1.7512914 2.6395423 1.9704309 4812145
-1.7391425 2.5663829 1.9509118 5138286
-1.7147799 2.4902914 1.9117681 5400427
-1.702565 2.4167962 1.8921422 5137510
-1.6780677 2.3402228 1.8527834 4547431
-1.6534811 2.2633696 1.8132808 4416097
-1.6411544 2.1893308 1.7934756 4219754
-1.6164325 2.1119897 1.7537553 4480875
-1.5916194 2.0343647 1.7138897 4349543
-1.5667164 1.956454 1.6738774 3824487
-1.5417203 1.8782556 1.6337172 3890022
-1.5291874 1.8032472 1.6135813 3954791
-1.4914509 1.7209916 1.5529512 4085859
-1.4661767 1.6419222 1.5123434 3690330
-1.4408084 1.5625596 1.4715853 4019540
-1.4025801 1.4790955 1.4101635 3429212
-1.3897893 1.402946 1.3896132 3298644
-1.3512737 1.3187227 1.3277315 3429719
-1.3254765 1.2380853 1.2862839 4148047
-1.2995833 1.157146 1.2446811 3888733
-1.2735918 1.075902 1.2029215 4151393
-1.2605597 0.99865627 1.1819828 4349018
-1.2605597 0.92563868 1.1819828 4480621
-1.2475029 0.84817886 1.1610047 3825006
-1.2475029 0.77509212 1.1610047 4021101
-1.2344217 0.69741821 1.1399873 4022112
-1.2213151 0.61959743 1.11893 4087652
-1.2081842 0.54162884 1.0978328 3428698
-1.9386156 6.0163012 2.1038334 605522
-1.9884996 5.9451513 2.1786368 5148070
-2.0009146 5.8753281 2.1972539 6527395
-2.0009146 5.80584 2.1972539 6855859
-2.0133076 5.7362037 2.2158375 6724784
-2.0009146 5.6668649 2.1972539 6986672
-2.0133076 5.5973525 2.2158375 7182776
-2.0009146 5.5278897 2.1972539 6987181
-2.0009146 5.4584017 2.1972539 7118002
-2.0133076 5.3890762 2.2158375 6986677
-2.0009146 5.3194265 2.1972539 7184051
-2.0009146 5.249939 2.1972539 7184048
-2.0009146 5.1804514 2.1972539 7052456
-2.0009146 5.1109633 2.1972539 7052204
-2.0009146 5.0414758 2.1972539 7117998
-2.0009146 4.9719882 2.1972539 6920618
-2.0009146 4.9025006 2.1972539 7117222
-2.0009146 4.8330131 2.1972539 7116713
-2.0009146 4.763525 2.1972539 6723244
-2.0009146 4.6940374 2.1972539 6984872
-2.0009146 4.6245499 2.1972539 6724003
-2.0009146 4.5550623 2.1972539 6853799
-1.9884996 4.4846029 2.1786368 6984358
-1.9884996 4.4150529 2.1786368 6918308
-1.9884996 4.3455029 2.1786368 6656157
-1.9884996 4.2759533 2.1786368 6655902
-1.9884996 4.2064033 2.1786368 6524316
-1.9760621 4.1355677 2.1599865 6655645
-1.9760621 4.0659552 2.1599865 6588578
-1.9760621 3.9963429 2.1599865 6457746
-1.9636021 3.9252555 2.1413023 6327187
-1.9636021 3.8555808 2.1413023 6129551
-1.9636021 3.7859058 2.1413023 6064786
-1.9511195 3.7145658 2.1225843 6062473
-1.9511195 3.6448283 2.1225843 6062221
-1.9386156 3.5732968 2.1038334 5996423
-1.9260877 3.5016365 2.0850477 6061708
-1.9135385 3.4298475 2.0662293 5734279
-1.9135385 3.3599217 2.0662293 5667721
-1.9009652 3.2879398 2.0473769 5798280
-1.8883712 3.2158282 2.0284901 5404029
-1.8883712 3.145776 2.0284901 5404534
-1.8757528 3.0734706 2.0095689 5339525
-1.8757528 3.0033553 2.0095689 5273211
-1.8631127 2.9308558 1.9906142 5600127
-1.8504488 2.8582251 1.9716241 5404027
-1.8377619 2.7854631 1.9526005 5141120
-1.8250531 2.7125685 1.9335423 5403008
-1.81232 2.6395423 1.9144492 5009009
-1.7867856 2.5636523 1.8761592 5205619
-1.773984 2.4902914 1.8569621 5270128
-1.7611585 2.4167962 1.8377297 4745585
-1.735437 2.3402228 1.7991598 4418411
-1.7096218 2.2633696 1.7604491 4286830
-1.6966791 2.1893308 1.7410407 4350827
-1.6707217 2.1119897 1.7021165 4482671
-1.6446686 2.0343647 1.6630501 4416614
-1.6185212 1.956454 1.6238396 4546921
-1.5922759 1.8782556 1.5844843 4546659
-1.5791167 1.8032472 1.5647522 4152669
-1.5394944 1.7209916 1.5053372 4283239
-1.5129571 1.6419222 1.4655434 4085858
-1.4863211 1.5625596 1.4256022 3561568
-1.459587 1.4829011 1.3855127 3954263
-1.4192976 1.3990583 1.3250968 3692133
-1.3923119 1.3187227 1.2846318 3888481
-1.3652257 1.2380853 1.2440149 3757152
-1.3380384 1.157146 1.203246 3759198
-1.3107481 1.075902 1.1623235 4283495
-1.2970647 0.99865627 1.1418042 4349800
-1.2833555 0.92126513 1.1212467 4285304
-1.2833555 0.84817886 1.1212467 4547690
-1.2696205 0.77057314 1.1006507 4612725
-1.255859 0.69282198 1.0800154 4810098
-1.242072 0.61492252 1.0593411 4678511
-1.2282592 0.53687668 1.038628 3299691
-2.0168293 6.0159001 2.0602503 1001814
-2.0689449 5.9448156 2.1333189 5344670
-2.0819159 5.8750548 2.151504 6788512
-2.0819159 5.8056293 2.151504 6921125
-2.0948634 5.7360549 2.1696575 7378347
-2.0948634 5.6666918 2.1696575 7248549
-2.0948634 5.5973282 2.1696575 6986155
-2.0819159 5.5279274 2.151504 7184561
-2.0819159 5.4585013 2.151504 7050924
-2.0948634 5.3892379 2.1696575 7314084
-2.0948634 5.3198743 2.1696575 7510958
-2.0819159 5.2502251 2.151504 7052966
-2.0819159 5.1807995 2.151504 6987166
-2.0819159 5.1113739 2.151504 7380135
-2.0819159 5.0419483 2.151504 6789549
-2.0819159 4.9725227 2.151504 6724005
-2.0819159 4.9030976 2.151504 7052958
-2.0819159 4.833672 2.151504 6658729
-2.0819159 4.7642465 2.151504 6985890
-2.0819159 4.6948214 2.151504 6722721
-2.0819159 4.6253958 2.151504 6855325
-2.0819159 4.5559702 2.151504 6723490
-2.0689449 4.4855747 2.1333189 6722719
-2.0819159 4.417119 2.151504 6459547
-2.0689449 4.3465991 2.1333189 6328213
-2.0689449 4.2771115 2.1333189 6589599
-2.0689449 4.207624 2.1333189 6458262
-2.0689449 4.1381359 2.1333189 6589591
-2.0689449 4.0686483 2.1333189 6521490
-2.0429342 3.9963429 2.0968504 6130325
-2.0429342 3.9267306 2.0968504 6260875
-2.0429342 3.8571186 2.0968504 6062991
-2.0429342 3.7875061 2.0968504 6193799
-2.0298936 3.7162311 2.0785668 5997444
-2.0168293 3.6448283 2.0602503 6127999
-2.003742 3.5732968 2.0419018 5995908
-2.003742 3.5034966 2.0419018 5865095
-1.9906303 3.4317734 2.023519 5995650
-1.9906303 3.3619106 2.023519 6060926
-1.977496 3.2899957 2.0051041 5535872
-1.9643373 3.2179511 1.9866552 5535607
-1.9643373 3.1479619 1.9866552 5273716
-1.9511557 3.0757241 1.9681739 5273216
-1.9379494 3.0033553 1.9496586 5666164
-1.9379494 2.9332395 1.9496586 5403764
-1.9114661 2.8582251 1.9125272 5337719
-1.9114661 2.7879829 1.9125272 5337463
-1.8848865 2.7125685 1.8752618 5074290
-1.8715603 2.6395423 1.8565779 5074550
-1.8582095 2.5663829 1.8378603 5075565
-1.8448355 2.4930906 1.819109 5139055
-1.818014 2.4167962 1.7815036 4614518
-1.8045655 2.3431671 1.7626488 4615016
-1.777597 2.2663894 1.7248374 4745582
-1.7505298 2.1893308 1.6868873 4941419
-1.7369578 2.1151567 1.6678602 4679535
-1.7097417 2.0376086 1.6297009 4809830
-1.6824237 1.9597754 1.5914017 4416351
-1.6550066 1.881655 1.5529611 4414568
-1.6274875 1.8032472 1.5143788 4349796
-1.5998681 1.7245493 1.4756542 4414808
-1.5721449 1.6455595 1.4367857 3954775
-1.5303671 1.5625596 1.3782119 3954527
-1.5023869 1.4829011 1.3389819 3758178
-1.4743018 1.402946 1.299605 3823969
-1.4319764 1.3187227 1.2402639 3561565
-1.4036279 1.2380853 1.200518 3496290
-1.3751733 1.157146 1.1606232 3957331
-1.346611 1.075902 1.1205781 4284010
-1.346611 1.0029531 1.1205781 4547177
-1.3322896 0.92563868 1.100499 4153706
-1.3179414 0.84817886 1.0803823 4088945
-1.3179414 0.77509212 1.0803823 4612205
-1.3035662 0.69741821 1.0602278 4744299
-1.2891636 0.61959743 1.0400347 4613743
-1.274734 0.54162884 1.0198036 3757405
-2.080548 6.0159001 1.9958836 1394521
-2.1213739 5.9451513 2.0494783 5542059
-2.1349332 5.8753281 2.0672791 6464177
-2.148469 5.8056293 2.085048 6858157
-2.148469 5.7362037 2.085048 7056310
-2.148469 5.6667781 2.085048 6923952
-2.148469 5.5973525 2.085048 7121077
-2.148469 5.5279274 2.085048 6598322
-2.148469 5.4585013 2.085048 6990510
-2.148469 5.3890762 2.085048 7120558
-2.148469 5.3196507 2.085048 6989998
-2.148469 5.2502251 2.085048 7186357
-2.148469 5.1807995 2.085048 7382957
-2.148469 5.1113739 2.085048 6924726
-2.148469 5.0419483 2.085048 6988206
-2.148469 4.9725227 2.085048 6922415
-2.148469 4.9030976 2.085048 6857894
-2.148469 4.833672 2.085048 7119275
-2.148469 4.7642465 2.085048 6857387
-2.1349332 4.6940374 2.0672791 6791338
-2.148469 4.6253958 2.085048 6725797
-2.148469 4.5559702 2.085048 7118245
-2.148469 4.4865446 2.085048 6724251
-2.1349332 4.4160872 2.0672791 6201500
-2.1349332 4.3465991 2.0672791 6462365
-2.1349332 4.2771115 2.0672791 6461852
-2.1349332 4.207624 2.0672791 6658197
-2.1213739 4.1368532 2.0494783 6395547
-2.1213739 4.0673032 2.0494783 6329496
-2.1213739 3.9977531 2.0494783 6132116
-2.10779 3.9267306 2.0316455 6393747
-2.10779 3.8571186 2.0316455 6130324
-2.0941813 3.7859058 2.0137808 6328211
-2.0941813 3.7162311 2.0137808 5998983
-2.080548 3.6448283 1.9958836 6457995
-2.080548 3.5750909 1.9958836 6129805
-2.0668907 3.5034966 1.9779552 5736584
-2.0532084 3.4317734 1.9599932 5932422
-2.0532084 3.3619106 1.9599932 5735557
-2.0395021 3.2899957 1.9419999 5865859
-2.0257704 3.2179511 1.9239736 5603716
-2.0257704 3.1479619 1.9239736 5537149
-2.0120149 3.0757241 1.9059154 5537149
-1.9982333 3.0033553 1.8878242 5406080
-1.9844284 2.9308558 1.8696998 5471611
-1.9844284 2.860677 1.8696998 5209219
-1.9705968 2.7879829 1.8515428 5273216
-1.9567409 2.7151568 1.8333528 5207925
-1.9289534 2.6395423 1.7968745 5273211
-1.9150212 2.5663829 1.7785857 4945265
-1.9010649 2.4930906 1.7602638 5075566
-1.8730752 2.4167962 1.7235193 4484977
-1.8590412 2.3431671 1.7050964 4879476
-1.8308983 2.2663894 1.6681504 4746864
-1.8167881 2.1924212 1.6496266 4746861
-1.7884895 2.1151567 1.6124779 4746096
-1.7600882 2.0376086 1.5751926 4418152
-1.7315806 1.9597754 1.5377702 4744811
-1.7172891 1.8850484 1.5190076 4024165
-1.6742524 1.8032472 1.4625109 4286046
-1.64543 1.7245493 1.424673 4285292
-1.6164997 1.6455595 1.3866944 4284512
-1.5874625 1.566277 1.348575 3759965
-1.5437042 1.4829011 1.2911302 4021346
-1.5143958 1.402946 1.2526548 3891547
-1.4702275 1.3187227 1.1946726 3628380
-1.4406444 1.2380853 1.1558366 3694435
-1.4109509 1.157146 1.1168553 3694947
-1.3960612 1.0801215 1.0973096 4088938
-1.3661997 0.99865627 1.0581079 4352105
-1.3661997 0.92563868 1.0581079 4287083
-1.3512267 0.84817886 1.0384517 4089196
-1.3512267 0.77509212 1.0384517 4483450
-1.3362256 0.69741821 1.0187585 4745587
-1.3211958 0.61959743 0.99902779 4615281
-1.3061378 0.54162884 0.97926015 4021616
-2.1422136 6.0159001 1.9295472 672855
-2.1847031 5.9451513 1.981833 5279398
-2.2129018 5.8750548 2.0165339 6591927
-2.2129018 5.8056293 2.0165339 6659242
-2.2129018 5.7362037 2.0165339 6920620
-2.2129018 5.6667781 2.0165339 7184039
-2.2129018 5.5973525 2.0165339 7315132
-2.2129018 5.5279274 2.0165339 7053752
-2.1988146 5.4584017 1.9991992 6791088
-2.1988146 5.3889141 1.9991992 7249079
-2.1988146 5.3194265 1.9991992 7315121
-2.2129018 5.2502251 2.0165339 7249584
-2.2129018 5.1807995 2.0165339 6658476
-2.2129018 5.1113739 2.0165339 7119793
-2.2129018 5.0419483 2.0165339 7119278
-2.1988146 4.9719882 1.9991992 6922417
-2.2129018 4.9030976 2.0165339 7118506
-2.2129018 4.833672 2.0165339 6986664
-2.2129018 4.7642465 2.0165339 7052710
-2.1988146 4.6940374 1.9991992 7183015
-2.2129018 4.6253958 2.0165339 7248035
-2.2129018 4.5559702 2.0165339 7116450
-2.1988146 4.4855747 1.9991992 7050666
-2.1988146 4.4160872 1.9991992 7181216
-2.1988146 4.3465991 1.9991992 6591393
-2.1988146 4.2771115 1.9991992 6722200
-2.1847031 4.2064033 1.981833 6722201
-2.1847031 4.1368532 1.981833 6525846
-2.1847031 4.0673032 1.981833 6394521
-2.1847031 3.9977531 1.981833 6065555
-2.1847031 3.9282033 1.981833 6196357
-2.1705654 3.8571186 1.9644357 6327192
-2.1564026 3.7859058 1.9470073 6327699
-2.1564026 3.7162311 1.9470073 6129290
-2.1564026 3.6465564 1.9470073 6063497
-2.1422136 3.5750909 1.9295472 6128259
-2.1422136 3.5053537 1.9295472 5865855
-2.128 3.4336965 1.9120566 5996413
-2.11376 3.3619106 1.8945332 5996923
-2.11376 3.2920475 1.8945332 5864838
-2.0994954 3.2200699 1.8769792 5733760
-2.0852044 3.1479619 1.8593932 5732737
-2.0708883 3.0757241 1.841776 5732985
-2.0708883 3.005672 1.841776 5535871
-2.0565453 2.9332395 1.8241266 5338747
-2.0421779 2.860677 1.8064449 5404287
-2.0277827 2.7879829 1.7887313 5273210
-2.0133624 2.7151568 1.7709856 5207167
-1.9989159 2.6421993 1.7532085 5402738
-1.9844428 2.5691085 1.7353979 5337721
-1.969943 2.4958854 1.7175559 5074798
-1.9408666 2.4196656 1.6817741 4942962
-1.9262881 2.3461063 1.663834 4812400
-1.897051 2.2694035 1.6278559 4876906
-1.8823929 2.1955056 1.6098174 4745574
-1.8382561 2.1151567 1.5555043 4548461
-1.8234904 2.0408461 1.5373336 4875113
-1.7938766 1.9630904 1.5008918 4285282
-1.7641549 1.8850484 1.4643167 4416873
-1.7343224 1.8067186 1.427606 4154474
-1.7043803 1.7280998 1.3907596 4349040
-1.6592592 1.6455595 1.3352348 4152416
-1.629039 1.566277 1.2980461 4283746
-1.5987064 1.4866996 1.2607195 3955294
-1.5682609 1.4068255 1.2232538 4348510
-1.5223787 1.3226924 1.1667928 4085603
-1.491648 1.2421379 1.1289762 3826029
-1.4608016 1.1612821 1.0910175 4284004
-1.4453359 1.0843334 1.071985 4284264
-1.4143153 1.0029531 1.0338123 4613735
-1.3987615 0.92563868 1.0146723 4613482
-1.3831785 0.84817886 0.99549609 4613483
-1.3831785 0.77509212 0.99549609 4942455
-1.3831785 0.70200634 0.99549609 4679538
-1.3675662 0.62426281 0.97628397 4548205
-1.3362526 0.54162884 0.93775004 4349290
-2.1870096 6.0163012 1.8442705 16721
-2.2605259 5.9448156 1.9291462 4886193
-2.2751508 5.8750548 1.9460299 6395577
-2.2751508 5.8056293 1.9460299 6658740
-2.2605259 5.7363524 1.9291462 7051955
-2.2605259 5.6668649 1.9291462 5936559
-2.2605259 5.5973773 1.9291462 4557756
-2.2605259 5.5278897 1.9291462 3705265
-2.2605259 5.4584017 1.9291462 3702696
-2.2458758 5.388752 1.9122317 3112359
-2.2458758 5.3192019 1.9122317 3440041
-2.2458758 5.2496519 1.9122317 4426415
-2.2458758 5.1801023 1.9122317 5543616
-2.2605259 5.1109633 1.9291462 7053240
-2.2605259 5.0414758 1.9291462 7184564
-2.2751508 4.9725227 1.9460299 7183293
-2.2751508 4.9030976 1.9460299 7315114
-2.2751508 4.833672 1.9460299 6923439
-2.2751508 4.7642465 1.9460299 7248811
-2.2751508 4.6948214 1.9460299 7314087
-2.2751508 4.6253958 1.9460299 7117990
-2.2751508 4.5559702 1.9460299 6854060
-2.2605259 4.4855747 1.9291462 7050403
-2.2605259 4.4160872 1.9291462 6657957
-2.2605259 4.3465991 1.9291462 7115430
-2.2605259 4.2771115 1.9291462 6787484
-2.2605259 4.207624 1.9291462 6918818
-2.2458758 4.1368532 1.9122317 6656159
-2.2458758 4.0673032 1.9122317 6459032
-2.2458758 3.9977531 1.9122317 6720920
-2.2458758 3.9282033 1.9122317 6719636
-2.2311988 3.8571186 1.8952874 6458503
-2.2311988 3.7875061 1.8952874 6653837
-2.2164953 3.7162311 1.8783123 6588052
-2.2164953 3.6465564 1.8783123 6456719
-2.2017651 3.5750909 1.8613065 6390671
-2.2017651 3.5053537 1.8613065 6193543
-2.1870096 3.4336965 1.8442705 6062470
-2.1722262 3.3619106 1.8272032 6128521
-2.1722262 3.2920475 1.8272032 5995654
-2.1574173 3.2200699 1.8101058 5799556
-2.1574173 3.1501441 1.8101058 5667972
-2.1425803 3.0779731 1.7929779 5666940
-2.1425803 3.0079842 1.7929779 5797756
-2.1277184 2.9356196 1.7758186 5796739
-2.1128283 2.8631241 1.7586282 5535099
-2.082968 2.7879829 1.724154 5469817
-2.067997 2.7151568 1.7068704 5534578
-2.067997 2.6448512 1.7068704 5402487
-2.0379739 2.5691085 1.6722087 5271415
-2.0078418 2.4930906 1.6374209 5401718
-1.992735 2.4196656 1.6199797 5138551
-1.9776002 2.3461063 1.6025064 5205108
-1.9472475 2.2694035 1.5674644 5008239
-1.916784 2.1924212 1.5322945 4942191
-1.901511 2.1183174 1.5146614 4482672
-1.8708798 2.0408461 1.4792974 5072239
-1.8401357 1.9630904 1.4438041 4875111
-1.80928 1.8850484 1.4081801 4351339
-1.7783091 1.8067186 1.3724247 4743284
-1.7472245 1.7280998 1.336537 4545631
-1.7003814 1.6455595 1.2824569 4349542
-1.6847086 1.5699873 1.2643628 4676443
-1.6375177 1.4866996 1.2098808 4217952
-1.6059107 1.4068255 1.1733897 4282717
-1.5582776 1.3226924 1.1183975 4281944
-1.5423404 1.2461829 1.0999987 4281958
-1.4943506 1.1612821 1.0445943 4217697
-1.4782946 1.0843334 1.026057 4284015
-1.4622073 1.0072412 1.0074846 4679019
-1.4460905 0.93000412 0.98887748 4548717
-1.4299432 0.85262108 0.97023505 4810865
-1.4299432 0.77960348 0.97023505 4876412
-1.4137654 0.70200634 0.95155787 4941693
-1.3975575 0.62426281 0.93284565 4679281
-1.3813182 0.54637289 0.91409785 4414050
-2.2744009 6.0154996 1.8077636 1718605
-2.3200066 5.9448156 1.8571895 4029584
-2.3502755 5.8747821 1.8899925 6064276
-2.3351543 5.8056293 1.8736055 5604758
-2.3351543 5.7362037 1.8736055 4556956
-2.3351543 5.6667781 1.8736055 2453390
-2.3351543 5.5973525 1.8736055 2126732
-2.3351543 5.5279274 1.8736055 1734287
-2.3200066 5.4584017 1.8571895 2059397
-2.3200066 5.3889141 1.8571895 2977419
-2.3200066 5.3194265 1.8571895 2257293
-2.3200066 5.249939 1.8571895 2190472
-2.3200066 5.1804514 1.8571895 2192783
-2.3200066 5.1109633 1.8571895 4620697
-2.3351543 5.0419483 1.8736055 6195873
-2.3502755 4.9730568 1.8899925 6327946
-2.3502755 4.9036937 1.8899925 6458760
-2.3502755 4.8343301 1.8899925 6523534
-2.3502755 4.7649665 1.8899925 6195850
-2.3502755 4.6956034 1.8899925 6130818
-2.3502755 4.6262398 1.8899925 6195594
-2.3502755 4.5568762 1.8899925 6327181
-2.3502755 4.4875126 1.8899925 6392707
-2.3351543 4.417119 1.8736055 6523537
-2.3351543 4.3476934 1.8736055 6195598
-2.3351543 4.2782679 1.8736055 6391181
-2.3351543 4.2088423 1.8736055 6391182
-2.3351543 4.1394167 1.8736055 6129544
-2.3200066 4.0686483 1.8571895 5604492
-2.3200066 3.9991605 1.8571895 6260358
-2.3200066 3.929673 1.8571895 6390666
-2.3048322 3.8586535 1.8407434 6194573
-2.2896304 3.7875061 1.8242685 6063247
-2.2896304 3.7178938 1.8242685 6193541
-2.2744009 3.6465564 1.8077636 6193794
-2.2744009 3.5768814 1.8077636 6128262
-2.2591438 3.5053537 1.7912289 5997188
-2.2438605 3.4336965 1.7746646 6061700
-2.2438605 3.3638964 1.7746646 5996422
-2.228548 3.2920475 1.7580701 5667715
-2.228548 3.2221849 1.7580701 5733512
-2.2132096 3.1501441 1.7414466 5733753
-2.1978421 3.0779731 1.724793 5667719
-2.1978421 3.0079842 1.724793 5798533
-2.1670256 2.9332395 1.6913949 5470081
-2.1670256 2.8631241 1.6913949 5404287
-2.1515758 2.7904983 1.6746508 5601410
-2.1360972 2.7177403 1.6578755 5731446
-2.1050568 2.6421993 1.6242353 5272189
-2.0894935 2.5691085 1.6073693 5403513
-2.0739024 2.4958854 1.5904723 5271932
-2.0582838 2.4225292 1.573545 5205620
-2.0269604 2.3461063 1.5395977 5206391
-1.9955219 2.2694035 1.5055263 5270900
-1.9639688 2.1924212 1.4713306 5205620
-1.9481493 2.1183174 1.4541861 4680308
-1.9164225 2.0408461 1.4198016 4811376
-1.8845787 1.9630904 1.3852917 4547439
-1.8526194 1.8850484 1.3506545 4547695
-1.8205407 1.8067186 1.3158895 4678755
-1.7883439 1.7280998 1.2809957 4350823
-1.7560277 1.6491899 1.2459736 4218219
-1.7073299 1.566277 1.1931961 4481130
-1.6910356 1.4904904 1.1755384 4283750
-1.6419753 1.4068255 1.1223677 4218476
-1.6091148 1.326654 1.0867552 4021599
-1.5761312 1.2461829 1.0510099 4020582
-1.5430247 1.1654096 1.0151303 4218470
-1.5097944 1.0843334 0.97911632 4678504
-1.4764383 1.0029531 0.94296664 5138032
-1.4764383 0.93000412 0.94296664 4549493
-1.4597133 0.85262108 0.92484075 5005937
-1.4597133 0.77960348 0.92484075 5007989
-1.442957 0.70200634 0.90668094 5139322
-1.4261693 0.62426281 0.88848698 4614774
-1.4093492 0.54637289 0.87025851 4152938
-2.3300619 6.0154996 1.7354308 1784386
-2.3928535 5.9444804 1.799332 3438730
-2.4084818 5.8747821 1.815236 5274503
-2.3928535 5.8056293 1.799332 1796479
-2.4084818 5.7360549 1.815236 2058365
-2.3928535 5.6667781 1.799332 2581372
-2.4084818 5.5973282 1.815236 2123390
-2.3928535 5.5279274 1.799332 1272442
-2.4084818 5.458601 1.815236 1796991
-2.3928535 5.3890762 1.799332 1795973
-2.3928535 5.3196507 1.799332 2582144
-2.3928535 5.2502251 1.799332 1796730
-2.3928535 5.1807995 1.799332 2122113
-2.3928535 5.1113739 1.799332 2058629
-2.3928535 5.0419483 1.799332 2518922
-2.4240813 4.9735899 1.8311116 6127745
-2.4084818 4.9036937 1.815236 5997706
-2.4240813 4.8349872 1.8311116 5865358
-2.4240813 4.7656851 1.8311116 6259332
-2.4240813 4.696384 1.8311116 6259078
-2.4240813 4.6270823 1.8311116 6325622
-2.4240813 4.5577807 1.8311116 5997189
-2.4240813 4.4884791 1.8311116 6128511
-2.4240813 4.419178 1.8311116 6128008
-2.4084818 4.3487859 1.815236 6258576
-2.4084818 4.2794228 1.815236 6128006
-2.3928535 4.2088423 1.799332 5800588
-2.3928535 4.1394167 1.799332 6128267
-2.4084818 4.071332 1.815236 6324112
-2.3928535 4.0005655 1.799332 5799560
-2.3771975 3.929673 1.7833998 5865093
-2.3771975 3.8601854 1.7833998 6061193
-2.3615141 3.7891035 1.7674387 5995912
-2.3615141 3.7195535 1.7674387 5799809
-2.3458023 3.6482813 1.7514492 6061189
-2.3300619 3.5768814 1.7354308 6060675
-2.3300619 3.5072067 1.7354308 5930103
-2.3300619 3.4375319 1.7354308 5798269
-2.3142929 3.3658788 1.7193836 5731969
-2.3142929 3.2961411 1.7193836 5732219
-2.2984967 3.2242963 1.7033077 5731972
-2.2826707 3.1523218 1.6872022 5536382
-2.2668178 3.0802181 1.6710685 5338752
-2.2509346 3.0079842 1.654906 5075580
-2.2509346 2.937995 1.654906 5402991
-2.2190843 2.8631241 1.6224924 5599861
-2.2031162 2.7904983 1.6062417 5468286
-2.2031162 2.7203193 1.6062417 5337202
-2.1710916 2.6448512 1.5736516 5271672
-2.1550364 2.5718293 1.5573124 5401974
-2.1389511 2.4986751 1.5409436 5074545
-2.1066945 2.4225292 1.5081164 4941934
-2.0905223 2.3490398 1.4916581 5204591
-2.0580878 2.2724123 1.4586509 5007470
-2.0255361 2.1955056 1.4255236 4547945
-2.0092154 2.1214726 1.4089149 4155505
-1.9764838 2.0440781 1.3756058 4284781
-1.9436333 1.9663999 1.3421741 4743531
-1.9106606 1.8884354 1.3086193 4480616
-1.8775674 1.810184 1.2749414 4677479
-1.8443519 1.7316442 1.2411386 4677214
-1.7942981 1.6491899 1.1902004 4349032
-1.7607743 1.5699873 1.1560842 4282208
-1.7271258 1.4904904 1.1218417 4347234
-1.6933531 1.4106984 1.0874716 4084827
-1.6424567 1.326654 1.0356754 4019288
-1.6083666 1.2461829 1.0009837 3757655
-1.5741493 1.1654096 0.96616173 3955298
-1.5398042 1.0843334 0.93120933 4021611
-1.5398042 1.0115213 0.93120933 4153193
-1.5225824 0.93436098 0.91368371 4482410
-1.4880431 0.85262108 0.87853366 4417391
-1.4880431 0.77960348 0.87853366 4153714
-1.4880431 0.70658588 0.87853366 4809328
-1.4707246 0.6289196 0.86090916 5137010
-1.4533736 0.55110741 0.84325147 4086110
-2.3834238 6.0154996 1.6613849 868435
-2.4804018 5.9438114 1.7540658 3832980
-2.496464 5.8742385 1.7694157 4290710
-2.4643114 5.8054185 1.7386879 1926795
-2.4804018 5.7359066 1.7540658 2451847
-2.4804018 5.6666055 1.7540658 2254720
-2.4804018 5.5973039 1.7540658 1862799
-2.4804018 5.5280023 1.7540658 2125201
-2.4804018 5.4587007 1.7540658 1667463
-2.4804018 5.3893991 1.7540658 2386559
-2.4643114 5.3198743 1.7386879 1993862
-2.4643114 5.2505112 1.7386879 1861772
-2.4643114 5.1811476 1.7386879 2320526
-2.4643114 5.111784 1.7386879 1927816
-2.4643114 5.0424204 1.7386879 2387591
-2.5124981 4.9746532 1.7847384 5864847
-2.5124981 4.9054751 1.7847384 6128787
-2.5124981 4.836297 1.7847384 6457232
-2.5285022 4.7678337 1.8000338 6193805
-2.5124981 4.6979413 1.7847384 6523014
-2.5124981 4.6287632 1.7847384 6719113
-2.5124981 4.5595851 1.7847384 6064011
-2.5124981 4.490407 1.7847384 6325648
-2.5124981 4.4212294 1.7847384 6260351
-2.496464 4.3509645 1.7694157 6587276
-2.496464 4.2817249 1.7694157 6062989
-2.4804018 4.2112732 1.7540658 6324623
-2.4643114 4.1406956 1.7386879 6259337
-2.4643114 4.071332 1.7386879 6194315
-2.4643114 4.0019684 1.7386879 5931144
-2.4481916 3.9311402 1.7232821 6323856
-2.4481916 3.8617148 1.7232821 5996927
-2.4320428 3.7906976 1.7078496 6061446
-2.4320428 3.72121 1.7078496 5996414
-2.4158659 3.6500034 1.692389 6324096
-2.4158659 3.5804539 1.692389 6323074
-2.3996594 3.5090568 1.676901 5865087
-2.3834238 3.4375319 1.6613849 5864573
-2.3671584 3.3658788 1.6458409 5995902
-2.3671584 3.2961411 1.6458409 5864065
-2.3508649 3.2242963 1.6302696 5864067
-2.3345408 3.1523218 1.6146692 5994881
-2.3345408 3.082459 1.6146692 5731709
-2.3181887 3.0102923 1.5990416 5534590
-2.3018062 2.937995 1.5833853 5600131
-2.2853949 2.8655677 1.5677013 5534332
-2.2689531 2.7930088 1.5519886 5534841
-2.2524827 2.7203193 1.536247 5796473
-2.235981 2.6474984 1.5204773 5271680
-2.2028894 2.5718293 1.4888526 5533307
-2.1862984 2.4986751 1.4729966 4878196
-2.1696765 2.4253879 1.4571124 5205109
-2.1363449 2.3490398 1.4252572 4877425
-2.1196327 2.2754159 1.4092858 5139315
-2.086117 2.1985843 1.3772557 4876146
-2.0524793 2.1214726 1.3451082 4548211
-2.0356145 2.0473042 1.3289906 4416366
-1.9848334 1.9663999 1.2804602 4809831
-1.9508226 1.8884354 1.2479581 4743790
-1.933772 1.813643 1.2316623 4480108
-1.8995736 1.7351816 1.1989801 4349544
-1.8480403 1.6528139 1.1497303 4938600
-1.813525 1.5736914 1.1167451 4741478
-1.7615117 1.4904904 1.0670372 4085862
-1.7266761 1.4106984 1.0337451 4479842
-1.6917098 1.3306088 1.0003283 4413279
-1.6390148 1.2461829 0.94996941 4282719
-1.6213845 1.1695299 0.93312031 4217445
-1.5860238 1.0885377 0.8993271 4742760
-1.5505306 1.0072412 0.86540741 4678507
-1.5505306 0.93436098 0.86540741 4875892
-1.5327344 0.85705519 0.84839928 4745589
-1.5149043 0.77960348 0.83135957 4483192
-1.5149043 0.70658588 0.83135957 4745329
-1.4970406 0.6289196 0.81428766 4745331
-1.4791436 0.55110741 0.79718381 4741997
-2.451148 6.0151 1.6006984 807517
-2.5011132 5.9444804 1.6455321 3574965
-2.517709 5.8747821 1.6604239 2589868
-2.517709 5.8054185 1.6604239 2981553
-2.5342746 5.7359066 1.6752888 2915761
-2.517709 5.6666918 1.6604239 2785196
-2.517709 5.5973282 1.6604239 2785464
-2.517709 5.5279651 1.6604239 3179439
-2.517709 5.458601 1.6604239 2523822
-2.517709 5.3892379 1.6604239 2196658
-2.517709 5.3198743 1.6604239 2588850
-2.517709 5.2505112 1.6604239 3244211
-2.517709 5.1811476 1.6604239 2784950
-2.5011132 5.1113739 1.6455321 2000053
-2.5011132 5.0419483 1.6455321 2065337
-2.517709 4.9730568 1.6604239 3180725
-2.517709 4.9036937 1.6604239 6857148
-2.5342746 4.8349872 1.6752888 7381684
-2.5342746 4.7656851 1.6752888 7381685
-2.5342746 4.696384 1.6752888 7381171
-2.5342746 4.6270823 1.6752888 7380401
-2.5342746 4.5577807 1.6752888 7052724
-2.5342746 4.4884791 1.6752888 6987434
-2.5342746 4.419178 1.6752888 6987182
-2.5342746 4.3498764 1.6752888 6854321
-2.517709 4.2794228 1.6604239 7116715
-2.517709 4.2100592 1.6604239 6855334
-2.5011132 4.1394167 1.6455321 6986161
-2.5011132 4.0699911 1.6455321 6462116
-2.5011132 4.0005655 1.6455321 6590886
-2.5011132 3.9311402 1.6455321 6590886
