-1.57995 4.10112 1.65693
-1.56221 3.88386 1.64077
-1.50878 3.66543 1.59212
-1.473 3.44635 1.55953
-1.40102 3.22485 1.49398
-1.29203 2.99963 1.39472
-1.29203 2.77924 1.39472
-1.25542 2.55596 1.36138
-1.25542 2.33515 1.36138
-1.3285 2.12176 1.42793
-1.473 1.91813 1.55953
-1.68571 1.72632 1.75324
-1.87656 1.53641 1.92705
-2.06357 1.35031 2.09736
-2.41036 1.19391 2.41319
-2.58687 1.01644 2.57392
-2.66595 0.825301 2.64596
-2.74435 0.635839 2.71735
-2.77552 0.438498 2.74573
-2.79106 0.238491 2.75989
-2.75995 0.0282111 2.73156
-2.65019 -0.201606 2.6316
-0.774029 6.14636 0.805037
-0.836012 5.91385 0.853159
-1.10046 5.66714 1.05847
-1.24013 5.43434 1.1669
-1.39747 5.20356 1.28905
-1.53319 4.97713 1.39442
-1.59081 4.75625 1.43915
-1.59081 4.53793 1.43915
-1.64811 4.31891 1.48363
-1.64811 4.10121 1.48363
-1.62905 3.88333 1.46883
-1.60995 3.66505 1.45401
-1.57164 3.44576 1.42427
-1.47525 3.22324 1.34943
-1.37794 2.99861 1.27388
-1.37794 2.77801 1.27388
-1.27969 2.55017 1.19761
-1.35836 2.33515 1.25869
-1.41697 2.11991 1.30419
-1.55244 1.91407 1.40936
-1.78054 1.72194 1.58645
-2.0036 1.53407 1.75962
-2.16767 1.34284 1.887
-2.5402 1.18616 2.17621
-2.72977 1.0083 2.32339
-2.81473 0.816682 2.38934
-2.89893 0.626757 2.45471
-2.9491 0.432112 2.49365
-2.9491 0.228384 2.49365
-2.88215 0.0103784 2.44168
-2.7978 -0.212964 2.37619
-0.768849 6.15249 0.698462
-0.834804 5.91927 0.741826
-1.15885 5.66868 0.954877
-1.28585 5.43696 1.03838
-1.43218 5.20681 1.13459
-1.57658 4.97971 1.22952
-1.65823 4.75754 1.28321
-1.69882 4.53793 1.3099
-1.71906 4.31938 1.32321
-1.71906 4.10127 1.32321
-1.73927 3.88333 1.33649
-1.69882 3.66466 1.3099
-1.63787 3.44458 1.26982
-1.53552 3.22164 1.20253
-1.45293 2.99759 1.14823
-1.4114 2.77431 1.12092
-1.28585 2.54433 1.03838
-1.47363 2.3368 1.16184
-1.4943 2.11806 1.17543
-1.63787 1.91203 1.26982
-1.85969 1.71755 1.41566
-2.07698 1.52702 1.55853
-2.2899 1.34034 1.69852
-2.61064 1.17315 1.9094
-2.83118 0.997365 2.0544
-2.97561 0.813798 2.14936
-3.04705 0.620674 2.19633
-3.08259 0.42249 2.2197
-3.06484 0.214825 2.20802
-2.99352 -0.00400066 2.16113
-2.95767 -0.216763 2.13756
-0.77495 6.15659 0.610491
-0.844376 5.9229 0.648696
-1.16303 5.67333 0.824053
-1.31914 5.43959 0.909958
-1.45128 5.21007 0.982678
-1.60355 4.9823 1.06647
-1.71107 4.75884 1.12564
-1.7538 4.53881 1.14915
-1.7538 4.32009 1.14915
-1.7538 4.10136 1.14915
-1.7751 3.8828 1.16087
-1.73245 3.66352 1.13741
-1.68965 3.4434 1.11385
-1.56025 3.21921 1.04264
-1.49499 2.99554 1.00673
-1.40741 2.76934 0.95853
-1.3854 2.54579 0.946422
-1.49499 2.33184 1.00673
-1.56025 2.1162 1.04264
-1.71107 1.90999 1.12564
-1.9231 1.71314 1.24232
-2.17234 1.52467 1.37948
-2.37585 1.33533 1.49147
-2.65457 1.16003 1.64485
-2.86865 0.98082 1.76265
-3.04068 0.799304 1.85733
-3.11626 0.605376 1.89892
-3.15385 0.406341 1.9196
-3.13507 0.197741 1.90926
-3.11626 -0.0112286 1.89892
-3.09742 -0.22057 1.88854
-0.625796 6.17316 0.459814
-0.844577 5.92655 0.558708
-1.20073 5.67488 0.719696
-1.36341 5.44091 0.793231
-1.47827 5.21225 0.845153
-1.59204 4.98578 0.896579
-1.70473 4.76146 0.947516
-1.7495 4.54059 0.967756
-1.79411 4.32056 0.987918
-1.83855 4.10136 1.00801
-1.79411 3.88227 0.987918
-1.77183 3.66275 0.977847
-1.70473 3.44161 0.947516
-1.59204 3.21759 0.896579
-1.50111 2.99245 0.855478
-1.38647 2.76433 0.803656
-1.43246 2.54433 0.824443
-1.50111 2.32684 0.855478
-1.56937 2.1106 0.886332
-1.7495 1.9059 0.967756
-1.99277 1.71093 1.07772
-2.23107 1.51994 1.18543
-2.46456 1.33282 1.29098
-2.67275 1.14678 1.38509
-2.85692 0.961291 1.46833
-2.9981 0.772887 1.53215
-3.11771 0.583727 1.58622
-3.15729 0.38349 1.6041
-3.21641 0.187417 1.63083
-3.21641 -0.0184827 1.63083
-3.21641 -0.224383 1.63083
-0.53271 6.18365 0.36343
-0.835963 5.93021 0.472752
-1.20509 5.678 0.605819
-1.37369 5.44355 0.666598
-1.54003 5.21225 0.726562
-1.58714 4.98841 0.743549
-1.68083 4.7641 0.777324
-1.79695 4.54104 0.819184
-1.86609 4.32056 0.84411
-1.84309 4.10145 0.835818
-1.82004 3.88192 0.827507
-1.79695 3.66197 0.819184
-1.75064 3.44101 0.802487
-1.58714 3.21514 0.743549
-1.54003 2.99142 0.726562
-1.37369 2.76055 0.666598
-1.49273 2.54433 0.709514
-1.5164 2.3235 0.718045
-1.56361 2.10497 0.735063
-1.79695 1.90384 0.819184
-2.04857 1.70871 0.909891
-2.27285 1.5152 0.990742
-2.51478 1.32778 1.07796
-2.75187 1.14411 1.16343
-2.94234 0.958481 1.23209
-3.06761 0.766958 1.27725
-3.17097 0.574367 1.31451
-3.253 0.380202 1.34408
-3.31414 0.183964 1.36613
-3.33444 -0.0184827 1.37345
-3.31414 -0.228202 1.36613
-0.480692 6.19 0.298896
-0.844851 5.93205 0.398683
-1.2489 5.678 0.509401
-1.42175 5.44355 0.556766
-1.56806 5.21335 0.596857
-1.64059 4.98841 0.616729
-1.7127 4.76476 0.636491
-1.83197 4.54149 0.669172
-1.87936 4.32103 0.682159
-1.87936 4.10148 0.682159
-1.85568 3.88174 0.67567
-1.83197 3.66159 0.669172
-1.76054 3.43982 0.649601
-1.61646 3.21432 0.61012
-1.54379 2.98935 0.590207
-1.37261 2.75802 0.543299
-1.54379 2.54433 0.590207
-1.54379 2.32182 0.590207
-1.59228 2.10309 0.603495
-1.83197 1.90179 0.669172
-2.09041 1.7065 0.739991
-2.34357 1.5152 0.809365
-2.59161 1.32778 0.87733
-2.81277 1.14145 0.937931
-2.98682 0.952846 0.985628
-3.15837 0.766958 1.03263
-3.24322 0.571234 1.05588
-3.32746 0.376908 1.07897
-3.39025 0.180504 1.09617
-3.41111 -0.0221186 1.10189
-3.39025 -0.232029 1.09617
-0.394783 6.19852 0.239634
-0.847377 5.93389 0.326169
-1.25968 5.67956 0.404998
-1.3859 5.44754 0.429131
-1.51091 5.21776 0.453034
-1.63472 4.99017 0.476704
-1.78174 4.7641 0.504814
-1.85462 4.54193 0.518747
-1.87882 4.32151 0.523376
-1.87882 4.10154 0.523376
-1.85462 3.88138 0.518747
-1.80608 3.66042 0.509467
-1.75735 3.43861 0.500151
-1.61006 3.21268 0.471987
-1.53577 2.98727 0.457784
-1.3859 2.75675 0.429131
-1.51091 2.53992 0.453034
-1.53577 2.31846 0.457784
-1.56058 2.09742 0.46253
-1.85462 1.89973 0.518747
-2.11833 1.70427 0.569166
-2.39985 1.5152 0.622993
-2.6297 1.32525 0.666938
-2.87769 1.14145 0.714355
-3.05494 0.952846 0.748244
-3.22965 0.766958 0.78165
-3.31606 0.571234 0.798167
-3.40186 0.376908 0.81457
-3.48704 0.183964 0.830861
-3.48704 -0.0221186 0.830861
-3.48704 -0.228202 0.830861
-0.357456 6.2028 0.201835
-0.843841 5.93573 0.25574
-1.18449 5.68585 0.293492
-1.36436 5.45021 0.313427
-1.49135 5.21997 0.3275
-1.61712 4.99194 0.341438
-1.76645 4.76542 0.357988
-1.84048 4.54283 0.366194
-1.86507 4.32199 0.368919
-1.8896 4.10157 0.371638
-1.86507 3.8812 0.368919
-1.81586 3.66003 0.363462
-1.74168 3.43741 0.355244
-1.61712 3.21186 0.341438
-1.5418 2.98623 0.333091
-1.38985 2.75548 0.316252
-1.46605 2.53549 0.324695
-1.49135 2.31339 0.3275
-1.56695 2.09552 0.33588
-1.86507 1.89766 0.368919
-2.18044 1.7065 0.403867
-2.41784 1.51282 0.43018
-2.69694 1.32778 0.461112
-2.92487 1.14145 0.486369
-3.12647 0.955666 0.508715
-3.28102 0.766958 0.525842
-3.39023 0.574367 0.537947
-3.49846 0.38349 0.549937
-3.54148 0.183964 0.554706
-3.54148 -0.0221186 0.554706
-3.54148 -0.228202 0.554706
-0.316746 6.20711 0.171403
-0.80782 5.93943 0.187042
-1.17782 5.68743 0.198825
-1.33331 5.45289 0.203776
-1.487 5.22108 0.208671
-1.61372 4.99282 0.212707
-1.73923 4.76675 0.216703
-1.83877 4.54328 0.219873
-1.86354 4.32223 0.220661
-1.83877 4.10166 0.219873
-1.83877 3.88084 0.219873
-1.7891 3.65925 0.218292
-1.71422 3.4362 0.215906
-1.58848 3.21021 0.211901
-1.487 2.98309 0.208671
-1.35905 2.75293 0.204597
-1.43597 2.53252 0.207045
-1.487 2.31169 0.208671
-1.63892 2.09931 0.21351
-1.91294 1.89973 0.222234
-2.18128 1.70427 0.230779
-2.46776 1.5152 0.239903
-2.70166 1.32525 0.247351
-2.95401 1.14145 0.255389
-3.15675 0.955666 0.261844
-3.33421 0.769926 0.267499
-3.42198 0.574367 0.270291
-3.55247 0.386771 0.274449
-3.57409 0.183964 0.275138
-3.59566 -0.0184827 0.275826
-3.59566 -0.224383 0.275826
-0.329218 6.20711 0.146022
-0.76634 5.94314 0.125592
-1.13759 5.69059 0.108241
-1.29359 5.45559 0.100948
-1.44779 5.22331 0.0937433
-1.6002 4.99371 0.0866188
-1.75087 4.76675 0.0795753
-1.82556 4.54373 0.0760867
-1.82556 4.32271 0.0760867
-1.82556 4.10169 0.0760867
-1.82556 3.88066 0.0760867
-1.77581 3.65885 0.0784112
-1.70084 3.43559 0.0819149
-1.5496 3.20855 0.0889848
-1.47331 2.98204 0.0925491
-1.39659 2.7542 0.0961354
-1.44779 2.53252 0.0937433
-1.52422 2.31339 0.0901703
-1.6002 2.09552 0.0866188
-1.89982 1.89766 0.0726161
-2.21677 1.7065 0.0577991
-2.47898 1.5152 0.0455477
-2.75897 1.3303 0.0324593
-2.98762 1.14411 0.0217739
-3.18987 0.958481 0.0123203
-3.36691 0.772887 0.00404553
-3.51974 0.586836 -0.00309512
-3.60622 0.393317 -0.00713996
-3.62774 0.190865 -0.00814437
-3.64923 -0.0112286 -0.00915314
-3.60622 -0.224383 -0.00713996
-0.284402 6.21143 0.126699
-0.7471 5.945 0.0684441
-1.06441 5.69537 0.0284945
-1.27183 5.45694 0.00237964
-1.39983 5.22555 -0.0137375
-1.5518 4.99549 -0.0328709
-1.72689 4.76742 -0.0549162
-1.77649 4.54464 -0.061161
-1.8259 4.32271 -0.0673812
-1.80122 4.10172 -0.0642722
-1.77649 3.8803 -0.061161
-1.72689 3.65807 -0.0549162
-1.65214 3.43437 -0.0455025
-1.47603 3.20605 -0.0233297
-1.42528 2.97993 -0.0169399
-1.39983 2.7542 -0.0137375
-1.45068 2.53252 -0.0201393
-1.50134 2.31169 -0.0265167
-1.62713 2.09742 -0.0423539
-1.92415 1.89973 -0.0797513
-2.19053 1.70427 -0.11329
-2.52169 1.51994 -0.154982
-2.79877 1.33533 -0.189867
-3.02504 1.14944 -0.218356
-3.24724 0.966896 -0.246333
-3.42213 0.78174 -0.268353
-3.55167 0.593038 -0.28466
-3.63726 0.399841 -0.295437
-3.65857 0.197741 -0.298115
-3.67983 -0.00400066 -0.300795
-3.63726 -0.216763 -0.295437
-0.238702 6.21576 0.115311
-0.723729 5.94687 0.0150803
-1.03755 5.69697 -0.0497715
-1.21721 5.45965 -0.0869001
-1.39443 5.22555 -0.123523
-1.59405 4.99371 -0.164775
-1.66812 4.76876 -0.180082
-1.74176 4.54509 -0.195301
-1.79062 4.32295 -0.205398
-1.74176 4.10178 -0.195301
-1.74176 3.88012 -0.195301
-1.66812 3.65728 -0.180082
-1.56927 3.43253 -0.159654
-1.44463 3.20522 -0.133895
-1.36926 2.97781 -0.118322
-1.39443 2.7542 -0.123523
-1.39443 2.52954 -0.123523
-1.54444 2.31508 -0.154521
-1.59405 2.09552 -0.164775
-1.91196 1.89973 -0.230471
-2.22211 1.70871 -0.294564
-2.52478 1.52231 -0.357112
-2.82024 1.34034 -0.418168
-3.0648 1.15739 -0.468707
-3.26129 0.97248 -0.509316
-3.45463 0.790546 -0.549268
-3.60287 0.605376 -0.579899
-3.66584 0.409582 -0.592918
-3.70763 0.21142 -0.60155
-3.68675 0.00320196 -0.597239
-3.66584 -0.205386 -0.592918
-0.247013 6.21576 0.0962279
-0.670672 5.95061 -0.0266638
-0.979654 5.70017 -0.11629
-1.18162 5.461 -0.174874
-1.33103 5.22779 -0.218214
-1.55191 4.9946 -0.282284
-1.62468 4.76943 -0.303394
-1.67297 4.546 -0.3174
-1.72107 4.32344 -0.331355
-1.72107 4.10178 -0.331355
-1.69704 3.87994 -0.324386
-1.62468 3.65688 -0.303394
-1.52755 3.43192 -0.275221
-1.42967 3.20522 -0.246828
-1.33103 2.97675 -0.218214
-1.35576 2.75293 -0.225387
-1.35576 2.52804 -0.225387
-1.52755 2.31508 -0.275221
-1.60047 2.09742 -0.296372
-1.91165 1.90179 -0.386635
-2.23829 1.71314 -0.481385
-2.53401 1.52702 -0.567165
-2.84463 1.34783 -0.657264
-3.08316 1.16529 -0.726461
-3.29593 0.98359 -0.788175
-3.50491 0.805117 -0.848795
-3.62853 0.617626 -0.884654
-3.68985 0.42249 -0.902445
-3.71022 0.221617 -0.908349
-3.66945 0.0103784 -0.89652
-3.649 -0.197834 -0.890597
-0.20127 6.22012 0.0963755
-0.641105 5.95248 -0.0696136
-0.917839 5.70339 -0.17405
-1.13983 5.46236 -0.257827
-1.3098 5.22779 -0.321974
-1.47748 4.99639 -0.385252
-1.57228 4.7701 -0.421031
-1.61941 4.54646 -0.438816
-1.66636 4.32368 -0.456533
-1.66636 4.10181 -0.456533
-1.64291 3.87975 -0.447683
-1.57228 3.65648 -0.421031
-1.45367 3.43069 -0.376266
-1.4298 3.20605 -0.36726
-1.35794 2.97887 -0.34014
-1.3098 2.75165 -0.321974
-1.3098 2.52654 -0.321974
-1.45367 2.31169 -0.376266
-1.57228 2.09742 -0.421031
-1.92139 1.9059 -0.55278
-2.23839 1.71755 -0.67241
-2.5472 1.53407 -0.788951
-2.84812 1.35527 -0.902518
-3.12076 1.17837 -1.00541
-3.34652 1.00011 -1.0906
-3.52795 0.81956 -1.15907
-3.64731 0.632817 -1.20413
-3.68682 0.435308 -1.21904
-3.70653 0.235128 -1.22647
-3.66709 0.0246568 -1.21159
-3.60767 -0.190309 -1.18916
-0.157191 6.22449 0.104269
-0.584364 5.95625 -0.0965242
-0.877259 5.705 -0.2342
-1.0687 5.46509 -0.324184
-1.25715 5.22892 -0.41277
-1.41966 4.99728 -0.489158
-1.51154 4.77077 -0.532345
-1.55722 4.54692 -0.553816
-1.60272 4.32392 -0.575203
-1.60272 4.10184 -0.575203
-1.55722 3.87939 -0.553816
-1.51154 3.65608 -0.532345
-1.41966 3.43069 -0.489158
-1.37346 3.20522 -0.467439
-1.32707 2.97887 -0.445633
-1.30381 2.75293 -0.4347
-1.25715 2.52504 -0.41277
-1.35029 2.30658 -0.456546
-1.55722 2.09931 -0.553816
-1.9164 1.90999 -0.722652
-2.22189 1.72194 -0.866245
-2.54045 1.54107 -1.01599
-2.85034 1.36513 -1.16165
-3.1519 1.19391 -1.3034
-3.38738 1.01915 -1.41408
-3.5416 0.836724 -1.48658
-3.63689 0.647875 -1.53137
-3.67477 0.451203 -1.54917
-3.65585 0.245199 -1.54028
-3.63689 0.0388346 -1.53137
-3.56072 -0.17907 -1.49556
-3.48402 -0.398515 -1.45951
-0.115706 6.22888 0.11964
-0.527467 5.96003 -0.114995
-0.833002 5.70662 -0.2891
-1.01715 5.46646 -0.394034
-1.22089 5.22892 -0.510132
-1.35475 4.99818 -0.586409
-1.44313 4.77145 -0.636771
-1.50897 4.54692 -0.674288
-1.53083 4.32416 -0.686746
-1.53083 4.10187 -0.686746
-1.48706 3.87921 -0.661807
-1.44313 3.65569 -0.636771
-1.35475 3.43007 -0.586409
-1.35475 3.20605 -0.586409
-1.3103 2.97993 -0.561082
-1.15338 2.7465 -0.471659
-1.17592 2.52203 -0.48451
-1.3103 2.30658 -0.561082
-1.53083 2.1012 -0.686746
-1.8538 1.90999 -0.870781
-2.20892 1.7285 -1.07315
-2.53304 1.55035 -1.25784
-2.88649 1.38221 -1.45925
-3.19117 1.21438 -1.63287
-3.41404 1.04063 -1.75987
-3.54189 0.85652 -1.83272
-3.59621 0.662802 -1.86367
-3.61425 0.46382 -1.87395
-3.57814 0.255219 -1.85337
-3.54189 0.045887 -1.83272
-3.50553 -0.164179 -1.812
-3.41404 -0.386717 -1.75987
-0.124736 6.22888 0.110193
-0.494124 5.96192 -0.140617
-0.76348 5.70986 -0.323505
-0.983099 5.46646 -0.472623
-1.1771 5.22892 -0.60435
-1.26224 4.99998 -0.662157
-1.36774 4.77213 -0.733791
-1.43055 4.54738 -0.776439
-1.43055 4.32465 -0.776439
-1.45141 4.1019 -0.7906
-1.40966 3.87902 -0.762249
-1.36774 3.65529 -0.733791
-1.28342 3.42945 -0.67654
-1.24102 3.20354 -0.647746
-1.11281 2.97249 -0.560698
-1.0913 2.74521 -0.54609
-1.1771 2.52504 -0.60435
-1.26224 2.30658 -0.662157
-1.49301 2.10309 -0.818842
-1.82011 1.91407 -1.04094
-2.17648 1.73502 -1.28291
-2.53996 1.56414 -1.52971
-2.9454 1.40625 -1.80499
-3.24793 1.24205 -2.01041
-3.42169 1.06444 -2.1284
-3.49035 0.873296 -2.17501
-3.5245 0.6776 -2.1982
-3.50744 0.473226 -2.18662
-3.49035 0.268495 -2.17501
-3.45608 0.059917 -2.15175
-3.38718 -0.156772 -2.10496
-3.33519 -0.371083 -2.06966
-0.0886248 6.23329 0.135585
-0.481569 5.96192 -0.178951
-0.735745 5.70986 -0.38241
-0.922445 5.46783 -0.531857
-1.12606 5.22892 -0.694841
-1.2064 4.99998 -0.759151
-1.28612 4.7728 -0.822963
-1.32575 4.5483 -0.854686
-1.38491 4.32441 -0.902041
-1.36522 4.10193 -0.886287
-1.34551 3.87902 -0.870501
-1.28612 3.65489 -0.822963
-1.24633 3.43007 -0.791119
-1.16631 3.2027 -0.727059
-1.06539 2.97249 -0.646279
-1.02475 2.74392 -0.613748
-1.1462 2.52654 -0.710964
-1.22639 2.30829 -0.775149
-1.44373 2.10497 -0.949123
-3.03043 1.43918 -2.21922
-3.27661 1.27163 -2.41627
-3.37328 1.08528 -2.49366
-3.40529 0.889899 -2.51928
-3.42125 0.692269 -2.53205
-3.40529 0.488792 -2.51928
-3.37328 0.28168 -2.49366
-3.32507 0.0703757 -2.45507
-3.27661 -0.142035 -2.41627
-3.21159 -0.35943 -2.36423
-0.0989893 6.23329 0.128214
-0.446 5.96382 -0.197377
-0.703473 5.70986 -0.438957
-0.897061 5.46646 -0.620595
-1.04922 5.23005 -0.76336
-1.12441 5.00088 -0.833909
-1.21759 4.7728 -0.921333
-1.23611 4.54876 -0.938719
-1.27306 4.3249 -0.973383
-1.27306 4.10196 -0.973383
-1.2546 3.87884 -0.956068
-1.18042 3.65408 -0.886465
-1.16179 3.42945 -0.868982
-1.10567 3.2027 -0.816324
-1.0114 2.97249 -0.727878
-0.954399 2.74262 -0.674393
-1.10567 2.52804 -0.816324
-1.16179 2.30829 -0.868982
-1.38305 2.10685 -1.07659
-3.10713 1.4781 -2.69425
-3.22692 1.29581 -2.80664
-3.28619 1.10585 -2.86226
-3.28619 0.906329 -2.86226
-3.27142 0.703913 -2.84838
-3.25661 0.501149 -2.8345
-3.22692 0.294774 -2.80664
-3.18219 0.0842357 -2.76468
-3.1222 -0.13105 -2.70838
-3.06178 -0.347837 -2.65169
-0.0895502 6.23551 0.141128
-0.410595 5.96572 -0.211399
-0.648796 5.71149 -0.472957
-0.863285 5.46509 -0.70848
-0.968648 5.23118 -0.824177
-1.03821 5.00178 -0.900558
-1.12441 4.77348 -0.995204
-1.15865 4.54876 -1.03281
-1.19276 4.3249 -1.07027
-1.17572 4.10199 -1.05156
-1.15865 3.87865 -1.03281
-1.07279 3.65328 -0.938527
-1.09003 3.42945 -0.957455
-0.986091 3.20016 -0.843326
-0.933666 2.97141 -0.78576
-0.880932 2.74132 -0.727857
-1.0035 2.52504 -0.86244
-1.14154 2.31339 -1.01402
-1.32791 2.1106 -1.21867
-2.91396 1.68385 -2.96025
-3.03785 1.50267 -3.09628
-3.0923 1.31249 -3.15606
-3.10585 1.11602 -3.17094
-3.10585 0.917189 -3.17094
-3.0923 0.715478 -3.15606
-3.07872 0.51342 -3.14116
-3.03785 0.304535 -3.09628
-2.99676 0.0945678 -3.05117
-2.95547 -0.116491 -3.00582
-2.85828 -0.343987 -2.8991
-0.0828302 6.23772 0.156229
-0.37582 5.96763 -0.221164
-0.593199 5.71312 -0.501163
-0.788934 5.46646 -0.753285
-0.869137 5.23344 -0.856593
-0.964353 5.00178 -0.979238
-1.01154 4.77484 -1.04003
-1.07404 4.54876 -1.12053
-1.0896 4.32514 -1.14056
-1.07404 4.10202 -1.12053
-1.05847 3.87847 -1.10046
-0.995845 3.65328 -1.0198
-0.980115 3.42821 -0.999539
-0.885083 3.19847 -0.877134
-0.853159 2.97034 -0.836012
-0.82111 2.74132 -0.79473
-0.932737 2.52504 -0.938516
-0.995845 2.30658 -1.0198
-1.24346 2.11247 -1.33875
-1.55721 1.93423 -1.74288
-2.71052 1.89078 -3.22844
-2.82278 1.70846 -3.37303
-2.8598 1.51588 -3.42073
-2.89664 1.32428 -3.46818
-2.89664 1.12613 -3.46818
-2.89664 0.927974 -3.46818
-2.88439 0.726963 -3.45239
-2.84748 0.519524 -3.40485
-2.81038 0.311014 -3.35707
-2.7731 0.101426 -3.30905
-2.72308 -0.112868 -3.24462
-2.66007 -0.332475 -3.16346
-0.0948326 6.23772 0.149249
-0.342118 5.96954 -0.226864
-0.552049 5.71312 -0.546161
-0.698462 5.46921 -0.76885
-0.799251 5.23344 -0.922143
-0.884549 5.00178 -1.05188
-0.926828 4.77484 -1.11618
-0.968861 4.54922 -1.18012
-0.996748 4.32514 -1.22253
-0.982819 4.10202 -1.20135
-0.954878 3.87828 -1.15885
-0.898669 3.65287 -1.07336
-0.926828 3.42945 -1.11618
-0.827793 3.19932 -0.96556
-0.784935 2.97034 -0.900374
-0.770594 2.74262 -0.87856
-0.813536 2.52052 -0.943872
-0.926828 2.30829 -1.11618
-1.14823 2.11434 -1.45293
-2.4376 2.08979 -3.41401
-2.56051 1.9095 -3.60095
-2.60462 1.71857 -3.66805
-2.62657 1.52461 -3.70143
-2.63751 1.32897 -3.71808
-2.64844 1.13366 -3.7347
-2.64844 0.936015 -3.7347
-2.61561 0.729822 -3.68476
-2.59362 0.525608 -3.65132
-2.56051 0.317472 -3.60095
-2.52722 0.108261 -3.55032
-2.46012 -0.112868 -3.44827
-2.40367 -0.332475 -3.36241
-0.323264 5.96954 -0.253007
-0.520459 5.71149 -0.611348
-0.635986 5.46921 -0.82128
-0.724435 5.23344 -0.98201
-0.786877 5.00269 -1.09548
-0.836395 4.77484 -1.18546
-0.861011 4.54968 -1.23019
-0.885531 4.32539 -1.27475
-0.861011 4.10208 -1.23019
-0.861011 3.87828 -1.23019
-0.811685 3.65287 -1.14056
-0.799293 3.42758 -1.11804
-0.736972 3.19847 -1.00479
-0.736972 2.97249 -1.00479
-0.711874 2.74392 -0.959183
-0.749485 2.52203 -1.02753
-0.824053 2.30658 -1.16303
-1.04264 2.1162 -1.56025
-2.25062 2.10512 -3.75538
-2.30881 1.91689 -3.8611
-2.33767 1.72459 -3.91355
-2.35683 1.53112 -3.94837
-2.36639 1.33597 -3.96574
-2.35683 1.13616 -3.94837
-2.34725 0.936015 -3.93098
-2.31844 0.729822 -3.87862
-2.30881 0.528641 -3.8611
-2.27979 0.320692 -3.80838
-2.24087 0.108261 -3.73766
-2.19185 -0.109251 -3.64856
-2.14239 -0.328651 -3.5587
-0.313806 5.96763 -0.302787
-0.459814 5.71312 -0.625796
-0.536884 5.47335 -0.796294
-0.645156 5.23344 -1.03582
-0.698502 5.00269 -1.15384
-0.740808 4.77484 -1.24743
-0.761838 4.54968 -1.29396
-0.772322 4.32564 -1.31715
-0.772322 4.10205 -1.31715
-0.740808 3.87791 -1.24743
-0.709108 3.65247 -1.17731
-0.698502 3.42696 -1.15384
-0.645156 3.19762 -1.03582
-0.623669 2.96926 -0.988291
-0.623669 2.74262 -0.988291
-0.687874 2.52504 -1.13033
-0.740808 2.30829 -1.24743
-0.927199 2.11806 -1.65978
-1.96567 2.1085 -3.95716
-2.00698 1.91873 -4.04856
-2.0316 1.72659 -4.10302
-2.04794 1.53328 -4.13918
-2.03978 1.33364 -4.12112
-2.03978 1.13616 -4.12112
-2.0316 0.936015 -4.10302
-2.0152 0.732676 -4.06675
-1.9905 0.525608 -4.0121
-1.96567 0.317472 -3.95716
-1.93236 0.104846 -3.88348
-1.8904 -0.112868 -3.79066
-1.84808 -0.332475 -3.69703
-0.298441 5.96572 -0.352435
-0.436599 5.70824 -0.735679
-0.50862 5.46783 -0.935459
-0.605819 5.00269 -1.20509
-0.64065 4.77484 -1.30171
-0.649318 4.55015 -1.32575
-0.6666 4.32564 -1.37369
-0.6666 4.10205 -1.37369
-0.649318 3.8781 -1.32575
-0.605819 3.65206 -1.20509
-0.597068 3.42633 -1.18081
-0.561896 3.19762 -1.08325
-0.535337 2.96819 -1.00957
-0.544207 2.74262 -1.03418
-0.605819 2.52654 -1.20509
-0.631969 2.30658 -1.27762
-0.794114 2.11806 -1.72741
-1.58022 2.09151 -3.90803
-1.65596 1.91135 -4.11813
-1.68991 1.72259 -4.21232
-1.69667 1.52678 -4.23106
-1.69667 1.32897 -4.23106
-1.70342 1.13366 -4.24977
-1.68991 0.930659 -4.21232
-1.68314 0.729822 -4.19355
-1.66278 0.522569 -4.13703
-1.6423 0.314246 -4.08022
-1.61482 0.101426 -4.00402
-1.5941 -0.109251 -3.94653
-1.55232 -0.332475 -3.83063
-0.151394 6.23329 0.0575982
-0.255269 5.96954 -0.32148
-0.398683 5.70339 -0.844852
-0.468287 5.461 -1.09887
-0.522999 5.22555 -1.29853
-0.509402 5.00269 -1.2489
-0.536546 4.77484 -1.34796
-0.55004 4.54968 -1.3972
-0.556765 4.32564 -1.42175
-0.556765 4.10205 -1.42175
-0.536546 3.87791 -1.34796
-0.509402 3.65206 -1.2489
-0.502583 3.42633 -1.22402
-0.482046 3.19847 -1.14907
-0.461388 2.96926 -1.07369
-0.454476 2.74132 -1.04846
-0.502583 2.52504 -1.22402
-0.529778 2.30658 -1.32327
-0.656137 2.11806 -1.78439
-0.784304 1.93822 -2.25212
-1.28493 1.89643 -4.07912
-1.32775 1.71252 -4.23536
-1.34365 1.52025 -4.2934
-1.35421 1.32662 -4.33192
-1.35421 1.12864 -4.33192
-1.34894 0.927974 -4.31268
-1.33836 0.724099 -4.27409
-1.32775 0.519524 -4.23536
-1.3171 0.314246 -4.1965
-1.29032 0.0979996 -4.09876
-1.27414 -0.112868 -4.03972
-1.24699 -0.332475 -3.94062
-0.234452 5.96763 -0.367677
-0.331168 5.70339 -0.873527
-0.365892 5.46509 -1.05514
-0.409843 5.22779 -1.28502
-0.409843 5.00269 -1.28502
-0.424324 4.77553 -1.36076
-0.443501 4.54922 -1.46105
-0.443501 4.32564 -1.46105
-0.443501 4.10205 -1.46105
-0.429131 3.87791 -1.3859
-0.419507 3.65287 -1.33556
-0.404997 3.42633 -1.25968
-0.404997 3.20101 -1.25968
-0.380628 2.97034 -1.13222
-0.370814 2.74132 -1.08089
-0.400142 2.52354 -1.23429
-0.419507 2.30487 -1.33556
-0.504813 2.11434 -1.78174
-0.591742 1.93223 -2.2364
-0.692923 1.76497 -2.76559
-0.953256 1.69211 -4.12723
-0.979999 1.50709 -4.26706
-0.995132 1.31722 -4.34621
-0.995132 1.11855 -4.34621
-0.998898 0.922591 -4.36591
-0.991351 0.718357 -4.32648
-0.987573 0.516475 -4.30671
-0.976194 0.307778 -4.24719
-0.964757 0.0979996 -4.18737
-0.949411 -0.116491 -4.10712
-0.930083 -0.336306 -4.00602
-0.167922 6.22669 -0.0514445
-0.26161 5.70339 -0.896818
-0.284865 5.46373 -1.10665
-0.304917 5.22892 -1.28757
-0.310594 5.00178 -1.33881
-0.319072 4.77484 -1.4153
-0.324697 4.54968 -1.46605
-0.327499 4.32564 -1.49135
-0.327499 4.10205 -1.49135
-0.321886 3.8781 -1.4407
-0.310594 3.65247 -1.33881
-0.307759 3.42696 -1.31322
-0.307759 3.20186 -1.31322
-0.290623 2.97034 -1.15859
-0.281978 2.74002 -1.0806
-0.302069 2.52354 -1.26187
-0.313426 2.30487 -1.36436
-0.360729 2.11247 -1.79118
-0.411814 1.93023 -2.25212
-0.46111 1.75436 -2.69694
-0.54755 1.62001 -3.47689
-0.621987 1.48709 -4.14856
-0.635487 1.30059 -4.27037
-0.642184 1.1084 -4.3308
-0.642184 0.909051 -4.3308
-0.639958 0.706812 -4.31069
-0.639958 0.507295 -4.31069
-0.637721 0.304535 -4.29054
-0.628754 0.0911295 -4.20962
-0.619722 -0.123758 -4.12813
-0.608347 -0.343987 -4.02547
-0.165166 6.2223 -0.120923
-0.189593 5.705 -0.887968
-0.196327 5.46509 -1.09939
-0.202131 5.23005 -1.28169
-0.20867 4.99728 -1.487
-0.207044 4.77484 -1.43597
-0.209482 4.54922 -1.51244
-0.210288 4.32539 -1.53784
-0.209482 4.10205 -1.51244
-0.207859 3.8781 -1.46151
-0.204596 3.65247 -1.35905
-0.204596 3.42758 -1.35905
-0.206231 3.20438 -1.41038
-0.198824 2.97034 -1.17782
-0.196327 2.74002 -1.09939
-0.202131 2.52354 -1.28169
-0.204596 2.30316 -1.35905
-0.217499 2.10873 -1.76419
-0.231548 1.9242 -2.2054
-0.245134 1.7458 -2.63194
-0.261131 1.58229 -3.13438
-0.281955 1.44382 -3.78812
-0.292615 1.27893 -4.12284
-0.295879 1.09045 -4.22554
-0.297184 0.895394 -4.26637
-0.297184 0.695188 -4.26637
-0.297184 0.494981 -4.26637
-0.296536 0.291509 -4.24597
-0.294574 0.0807791 -4.18457
-0.291952 -0.134706 -4.1022
-0.289316 -0.351695 -4.01925
-0.153855 6.22012 -0.161638
-0.131907 5.95248 -0.631238
-0.118096 5.70339 -0.926701
-0.110691 5.46646 -1.08517
-0.102159 5.23118 -1.26772
-0.0913592 4.99728 -1.49879
-0.0925482 4.77416 -1.47331
-0.0901693 4.54922 -1.52422
-0.0889838 4.32539 -1.5496
-0.0889838 4.10202 -1.5496
-0.0913592 3.87828 -1.49879
-0.0961345 3.65287 -1.39659
-0.0973338 3.42758 -1.37092
-0.100949 3.20016 -1.29359
-0.10824 2.96819 -1.13759
-0.10824 2.74132 -1.13759
-0.100949 2.52354 -1.29359
-0.0985378 2.30144 -1.34519
-0.0795775 2.10685 -1.75087
-0.0611886 1.91813 -2.14432
-0.0433462 1.73502 -2.52608
-0.022834 1.56414 -2.96494
4.85794e-05 1.40625 -3.45447
0.0210617 1.25198 -3.90412
0.0298321 1.07229 -4.09179
0.0336899 0.881619 -4.17425
0.0346477 0.683482 -4.19478
0.0336899 0.479468 -4.17425
0.0327237 0.275099 -4.15369
0.0307986 0.066895 -4.11246
0.0278997 -0.14571 -4.05033
0.0240039 -0.363308 -3.967
-0.140698 6.22012 -0.173211
-0.0684437 5.945 -0.7471
-0.0483502 5.705 -0.906695
-0.025207 5.46646 -1.09051
-0.00237882 5.23118 -1.27183
0.0201374 4.99908 -1.45068
0.0265177 4.77348 -1.50134
0.0328689 4.54876 -1.5518
0.0328689 4.32539 -1.5518
0.0328689 4.10202 -1.5518
0.0265177 3.87828 -1.50134
0.0137357 3.65287 -1.39983
0.00408692 3.42633 -1.32318
0.000857216 3.20016 -1.29753
-0.0153853 2.96926 -1.16852
-0.025207 2.73871 -1.09051
-0.00886935 2.51901 -1.22028
0.00730975 2.30144 -1.34878
0.0517835 2.10309 -1.70202
0.101175 1.91407 -2.0943
0.146138 1.7285 -2.45145
0.192741 1.55035 -2.82158
0.246329 1.38464 -3.24724
0.295439 1.22198 -3.63726
0.327314 1.04861 -3.89043
0.342995 0.862132 -4.01502
0.348194 0.665772 -4.05626
0.348194 0.46382 -4.05626
0.348194 0.261868 -4.05626
0.345596 0.0564184 -4.03566
0.340392 -0.153078 -3.99435
0.32994 -0.371083 -3.91128
-0.120987 6.21794 -0.211237
-0.00416301 5.94314 -0.776552
0.0175389 5.70662 -0.881568
0.0551056 5.46783 -1.06336
0.0974137 5.23118 -1.26809
0.133896 4.99908 -1.44463
0.149381 4.7728 -1.51956
0.159655 4.5483 -1.56927
0.164776 4.3249 -1.59405
0.159655 4.10199 -1.56927
0.149381 3.87847 -1.51956
0.123524 3.65287 -1.39443
0.118323 3.42758 -1.36926
0.102656 3.20016 -1.29346
0.0868985 2.97141 -1.21721
0.0657465 2.74002 -1.11485
0.0816257 2.51749 -1.19169
0.11311 2.30144 -1.34404
0.180083 2.1012 -1.66812
0.250362 1.90795 -2.0082
0.32362 1.72194 -2.36272
0.394861 1.54107 -2.70744
0.473253 1.37003 -3.08679
0.544859 1.20162 -3.4333
0.601552 1.02993 -3.70763
0.631541 0.845237 -3.85276
0.644284 0.650871 -3.91441
0.648511 0.451203 -3.93488
0.65274 0.251884 -3.95533
0.644284 0.0423641 -3.91441
0.640046 -0.164179 -3.89389
0.623012 -0.382798 -3.81147
-0.11187 6.22012 -0.193088
0.0567766 5.94314 -0.774484
0.086651 5.70662 -0.877475
0.145697 5.46646 -1.08103
0.203824 5.23005 -1.28142
0.253946 4.99818 -1.45421
0.268142 4.7728 -1.50315
0.282285 4.5483 -1.55191
0.296373 4.32465 -1.60047
0.289334 4.10196 -1.57621
0.275219 3.87865 -1.52755
0.246826 3.65368 -1.42967
0.232548 3.42821 -1.38044
0.218215 3.20186 -1.33103
0.196608 2.97356 -1.25654
0.145697 2.73871 -1.08103
0.174874 2.51749 -1.18162
0.218215 2.30144 -1.33103
0.303395 2.09931 -1.62468
0.393489 1.90384 -1.93527
0.494719 1.71755 -2.28425
0.580179 1.53172 -2.57888
0.676273 1.35527 -2.91016
0.775923 1.18616 -3.25368
0.842784 1.0083 -3.48418
0.884656 0.822433 -3.62853
0.926011 0.638857 -3.7711
0.931882 0.438498 -3.79133
0.931882 0.235128 -3.79133
0.931882 0.0317583 -3.79133
0.920133 -0.17907 -3.75084
0.90244 -0.394575 -3.68985
-0.106318 6.2223 -0.174925
0.0983221 5.94687 -0.717178
0.155229 5.70662 -0.867971
0.230064 5.46646 -1.06627
0.303734 5.23005 -1.26148
0.376264 4.99728 -1.45367
0.394223 4.77213 -1.50125
0.412112 4.54784 -1.54865
0.421029 4.32465 -1.57228
0.412112 4.10196 -1.54865
0.403174 3.87884 -1.52497
0.358237 3.65368 -1.4059
0.349196 3.42883 -1.38194
0.312862 3.20101 -1.28566
0.321972 2.97675 -1.3098
0.211467 2.7361 -1.01699
0.267043 2.51749 -1.16425
0.340141 2.30487 -1.35794
0.412112 2.09552 -1.54865
0.526731 1.89973 -1.85237
0.647041 1.71093 -2.17117
0.764232 1.52702 -2.4817
0.870365 1.34534 -2.76293
0.981881 1.17054 -3.05841
1.05982 0.989115 -3.26494
1.13637 0.81091 -3.4678
1.16662 0.617626 -3.54794
1.19665 0.425703 -3.62751
1.19665 0.221617 -3.62751
1.19665 0.0175304 -3.62751
1.18916 -0.190309 -3.60767
-0.116297 6.22669 -0.131603
0.119699 5.95248 -0.633667
0.222852 5.70662 -0.853116
0.335334 5.46373 -1.09241
0.423747 5.22779 -1.2805
0.510793 4.99549 -1.46569
0.521581 4.77145 -1.48864
0.553817 4.54692 -1.55722
0.553817 4.32441 -1.55722
0.553817 4.1019 -1.55722
0.532346 3.87902 -1.51154
0.489159 3.65449 -1.41966
0.445634 3.42821 -1.32707
0.401773 3.20016 -1.23376
0.445634 2.97887 -1.32707
0.313014 2.73871 -1.04493
0.379711 2.52052 -1.18683
0.478308 2.30999 -1.39658
0.521581 2.09362 -1.48864
0.659939 1.89766 -1.78299
0.794922 1.7065 -2.07015
0.926644 1.51994 -2.35038
1.05522 1.33784 -2.62392
1.18077 1.16003 -2.89102
1.27536 0.978045 -3.09224
1.35904 0.79639 -3.27027
1.40496 0.605376 -3.36795
1.43231 0.409582 -3.42614
1.44139 0.20801 -3.44547
1.45046 0.00679302 -3.46476
1.44139 -0.201606 -3.44547
-0.11964 6.22888 -0.115706
0.169047 5.95248 -0.622322
0.289099 5.70662 -0.833002
0.432959 5.46236 -1.08546
0.548382 5.22555 -1.28801
0.661805 4.99282 -1.48706
0.661805 4.7701 -1.48706
0.686746 4.54646 -1.53083
0.686746 4.32416 -1.53083
0.686746 4.10187 -1.53083
0.661805 3.87921 -1.48706
0.611639 3.65489 -1.39902
0.561081 3.42883 -1.3103
0.497333 3.20016 -1.19843
0.471659 2.97249 -1.15337
0.432959 2.74262 -1.08546
0.471659 2.52052 -1.15337
0.624217 2.31508 -1.4211
0.624217 2.09171 -1.4211
0.785553 1.89559 -1.70423
0.930973 1.70205 -1.95943
1.08485 1.5152 -2.22946
1.22362 1.3303 -2.473
1.35937 1.14944 -2.71122
1.48122 0.969691 -2.92506
1.57914 0.787616 -3.09689
1.62216 0.593038 -3.17238
1.66487 0.399841 -3.24733
1.66487 0.194306 -3.24733
1.68611 -0.00400066 -3.28461
1.6755 -0.212964 -3.26599
-0.110193 6.22888 -0.124736
0.217353 5.95248 -0.60714
0.383506 5.70339 -0.851848
0.531455 5.461 -1.06974
0.676538 5.22331 -1.28342
0.818843 4.99017 -1.49301
0.790601 4.76943 -1.45141
0.818843 4.546 -1.49301
0.818843 4.32392 -1.49301
0.818843 4.10184 -1.49301
0.804736 3.87957 -1.47223
0.748034 3.65569 -1.38872
0.676538 3.42945 -1.28342
0.618845 3.20186 -1.19845
0.560697 2.97249 -1.11281
0.531455 2.74392 -1.06974
0.560697 2.52052 -1.11281
0.77644 2.32014 -1.43055
0.705221 2.08789 -1.32566
0.902925 1.89352 -1.61684
1.06823 1.69981 -1.8603
1.22984 1.51044 -2.09832
1.38788 1.32525 -2.33108
1.52971 1.14145 -2.53996
1.66872 0.961291 -2.74469
1.7681 0.775844 -2.89105
1.81726 0.580612 -2.96345
1.89033 0.393317 -3.07108
1.90243 0.190865 -3.0889
1.90243 -0.014852 -3.0889
1.90243 -0.22057 -3.0889
-0.135585 6.23329 -0.0886246
0.264318 5.95248 -0.588215
0.465764 5.70178 -0.839877
0.64628 5.45829 -1.06539
0.807056 5.22108 -1.26625
0.93346 4.99017 -1.42416
0.917766 4.76876 -1.40455
0.93346 4.546 -1.42416
0.964757 4.32344 -1.46326
0.949124 4.10181 -1.44373
0.93346 3.87975 -1.42416
0.870501 3.65608 -1.3455
0.807056 3.43069 -1.26625
0.727057 3.2027 -1.16631
0.64628 2.97249 -1.06539
0.64628 2.7465 -1.06539
0.710965 2.52654 -1.1462
0.93346 2.32517 -1.42416
0.791117 2.08597 -1.24634
1.01148 1.89145 -1.52163
1.19573 1.69758 -1.75181
1.361 1.50566 -1.95828
1.53747 1.32018 -2.17873
1.69582 1.13609 -2.37657
1.83705 0.952846 -2.553
1.96199 0.769926 -2.70908
2.03053 0.577492 -2.7947
2.08492 0.38349 -2.86265
2.12546 0.187417 -2.9133
2.11197 -0.0221186 -2.89645
2.11197 -0.228202 -2.89645
-0.147719 6.23551 -0.0782014
0.309655 5.95248 -0.565664
0.530225 5.70178 -0.800744
0.76336 5.45559 -1.04922
0.903918 5.22108 -1.19902
1.04232 4.99017 -1.34653
1.04232 4.76809 -1.34653
1.07659 4.54509 -1.38305
1.11073 4.32295 -1.41944
1.09367 4.10175 -1.40126
1.04232 3.87975 -1.34653
1.00792 3.65688 -1.30986
0.938717 3.43192 -1.23611
0.851463 3.20438 -1.14312
0.76336 2.97462 -1.04922
0.692257 2.74392 -0.973436
0.727876 2.52052 -1.0114
0.86898 2.30829 -1.16179
0.921334 2.0898 -1.21758
1.11073 1.88937 -1.41944
1.31285 1.69534 -1.63486
1.49415 1.50326 -1.82809
1.68773 1.31764 -2.0344
1.86144 1.13341 -2.21954
2.00099 0.94719 -2.36827
2.12314 0.761009 -2.49845
2.22858 0.574367 -2.61083
2.27337 0.376908 -2.65857
2.28824 0.173567 -2.67442
2.30309 -0.0294113 -2.69024
2.30309 -0.235862 -2.69024
-0.141128 6.23551 -0.08955
0.292603 5.95813 -0.484548
0.630591 5.69857 -0.792351
0.881517 5.45289 -1.02087
1.01403 5.21997 -1.14154
1.12619 4.99105 -1.24369
1.21867 4.76542 -1.32792
1.21867 4.54419 -1.32792
1.23706 4.32271 -1.34466
1.21867 4.10172 -1.32792
1.18178 3.88012 -1.29432
1.12619 3.65728 -1.24369
1.07027 3.43315 -1.19276
0.957456 3.20522 -1.09003
0.881517 2.97675 -1.02087
0.766497 2.74392 -0.916122
0.766497 2.51749 -0.916122
0.900557 2.30316 -1.03821
1.01403 2.0898 -1.14154
1.20025 1.88728 -1.31113
1.41906 1.6931 -1.51041
1.63298 1.50326 -1.70522
1.84215 1.31764 -1.89571
1.996 1.12803 -2.03583
2.14734 0.941513 -2.17365
2.2798 0.755037 -2.29429
2.3779 0.564955 -2.38362
2.45885 0.373609 -2.45734
2.47495 0.170089 -2.472
2.49102 -0.0330672 -2.48664
2.47495 -0.243549 -2.472
-0.156229 6.23772 -0.0828303
0.394332 5.95248 -0.510259
0.732503 5.69537 -0.772798
0.938515 5.45424 -0.932738
1.12053 5.21886 -1.07405
1.24013 4.99017 -1.1669
1.37793 4.76343 -1.27388
1.33875 4.54373 -1.24346
1.35836 4.32247 -1.25868
1.35836 4.10166 -1.25868
1.3191 3.88048 -1.22821
1.24013 3.65767 -1.1669
1.16055 3.43315 -1.10511
1.08036 3.20689 -1.04286
0.99954 2.97887 -0.980114
0.877133 2.7465 -0.885084
0.836013 2.51749 -0.853158
0.958898 2.30144 -0.948559
1.04003 2.08405 -1.01155
1.29942 1.88728 -1.21292
1.51392 1.69085 -1.37945
1.74288 1.50086 -1.55721
1.9298 1.30999 -1.70232
2.11329 1.12263 -1.84477
2.29343 0.938668 -1.98463
2.45278 0.755037 -2.10834
2.55759 0.564955 -2.18971
2.62683 0.370303 -2.24347
2.66127 0.170089 -2.2702
2.66127 -0.0367298 -2.2702
2.62683 -0.251264 -2.24347
0.43315 5.95248 -0.477747
0.812862 5.69377 -0.7274
1.05188 5.45155 -0.88455
1.20135 5.21886 -0.982818
1.32786 4.99017 -1.066
1.4943 4.76278 -1.17543
1.47364 4.54283 -1.16184
1.4943 4.32199 -1.17543
1.4943 4.1016 -1.17543
1.45293 3.88084 -1.14823
1.36971 3.65846 -1.09351
1.28585 3.43437 -1.03838
1.20135 3.20855 -0.982818
1.11619 2.98098 -0.926827
0.965559 2.74779 -0.827794
0.943873 2.52052 -0.813535
1.03036 2.30144 -0.870402
1.13754 2.08597 -0.940867
1.36971 1.88519 -1.09351
1.59705 1.6886 -1.24298
1.83971 1.49846 -1.40253
2.05741 1.30999 -1.54566
2.27072 1.12533 -1.68591
2.44207 0.938668 -1.79857
2.57342 0.749044 -1.88493
2.70311 0.561806 -1.9702
2.79476 0.370303 -2.03045
2.81299 0.166605 -2.04244
2.81299 -0.0403986 -2.04244
2.79476 -0.251264 -2.03045
0.469299 5.95248 -0.442289
0.890434 5.69218 -0.674041
1.16303 5.44888 -0.824052
1.31914 5.21665 -0.909959
1.47316 4.98753 -0.994716
1.64668 4.7608 -1.0902
1.71107 4.5397 -1.12564
1.62513 4.32151 -1.07835
1.60355 4.10157 -1.06647
1.58192 3.8812 -1.05457
1.495 3.65925 -1.00673
1.4074 3.43559 -0.958531
1.29697 3.20938 -0.897757
1.18546 2.98098 -0.836397
1.09548 2.75165 -0.786876
1.05022 2.52354 -0.761973
1.09548 2.30144 -0.786876
1.18546 2.08405 -0.836397
1.47316 1.88728 -0.994716
1.71107 1.69085 -1.12564
1.96502 1.50086 -1.26539
2.17234 1.30999 -1.37948
2.396 1.12533 -1.50255
2.57566 0.938668 -1.60142
2.73291 0.752044 -1.68795
2.84936 0.561806 -1.75204
2.9263 0.366992 -1.79438
2.96456 0.166605 -1.81543
2.96456 -0.0403986 -1.81543
2.94545 -0.251264 -1.80492
0.5273 5.95061 -0.415292
0.988291 5.68901 -0.62367
1.29396 5.44488 -0.761838
1.47827 5.21225 -0.845153
1.65978 4.98317 -0.927198
1.83855 4.75754 -1.00801
1.92693 4.53705 -1.04795
1.7495 4.32103 -0.967757
1.72714 4.10151 -0.957645
1.68228 3.88138 -0.937366
1.61466 3.66003 -0.906804
1.52391 3.4368 -0.865782
1.40949 3.21103 -0.81406
1.27072 2.98204 -0.751333
1.1773 2.75293 -0.709109
1.15384 2.52654 -0.698501
1.1773 2.30316 -0.709109
1.29396 2.08789 -0.761838
1.56937 1.88937 -0.886333
1.79411 1.69085 -0.987919
2.05825 1.50086 -1.10732
2.29522 1.31255 -1.21443
2.52742 1.12803 -1.31939
2.69337 0.938668 -1.3944
2.85692 0.752044 -1.46833
2.9981 0.564955 -1.53215
3.05806 0.366992 -1.55925
3.09786 0.166605 -1.57724
3.09786 -0.0403986 -1.57724
3.07798 -0.251264 -1.56826
0.609201 5.94687 -0.391006
1.08325 5.68585 -0.561895
1.39759 5.44223 -0.675215
1.54002 5.21225 -0.726563
1.72741 4.98317 -0.794117
1.84309 4.7595 -0.835816
1.86609 4.5397 -0.844111
1.91197 4.32009 -0.86065
1.84309 4.10145 -0.835816
1.79695 3.88174 -0.819185
1.72741 3.66081 -0.794117
1.63408 3.43801 -0.760467
1.5164 3.21268 -0.718046
1.34974 2.98309 -0.657965
1.20509 2.75165 -0.605818
1.25349 2.52954 -0.623269
1.25349 2.30487 -0.623269
1.34974 2.08789 -0.657965
1.61063 1.88728 -0.752017
1.88905 1.6931 -0.852385
2.16123 1.50326 -0.950506
2.40542 1.3151 -1.03854
2.64469 1.13072 -1.12479
2.81571 0.941513 -1.18644
2.98425 0.755037 -1.2472
3.10907 0.564955 -1.2922
3.19154 0.370303 -1.32193
3.23255 0.170089 -1.33671
3.21206 -0.0403986 -1.32932
3.19154 -0.251264 -1.32193
0.690022 5.94314 -0.356257
1.1741 5.6827 -0.488905
1.47071 5.44091 -0.570182
1.6887 5.20789 -0.629916
1.83196 4.98143 -0.669173
1.90298 4.7595 -0.688634
1.95011 4.53926 -0.701546
2.04382 4.31938 -0.727225
1.95011 4.10139 -0.701546
1.92657 3.88227 -0.695095
1.83196 3.66159 -0.669173
1.73664 3.43922 -0.643051
1.64059 3.21514 -0.616731
1.47071 2.98623 -0.570182
1.29853 2.7542 -0.523001
1.32327 2.53103 -0.52978
2.02046 1.69981 -0.720823
2.25212 1.50566 -0.784302
2.52446 1.32018 -0.858929
2.74685 1.13341 -0.919869
2.9652 0.95002 -0.979701
3.13706 0.763986 -1.02679
3.24322 0.571234 -1.05588
3.30646 0.373609 -1.07321
3.34843 0.173567 -1.08471
3.34843 -0.0330672 -1.08471
3.30646 -0.247403 -1.07321
1.31031 5.67644 -0.414679
1.56058 5.43827 -0.462528
1.78174 5.20572 -0.504815
1.92708 4.97971 -0.532602
1.97517 4.75884 -0.541798
2.02307 4.53881 -0.550955
2.07079 4.31961 -0.560076
2.07079 4.1013 -0.560076
2.04695 3.8828 -0.555519
1.97517 3.66313 -0.541798
1.87882 3.44161 -0.523374
1.75735 3.21759 -0.500152
1.61006 2.99039 -0.471988
1.43605 2.75929 -0.438718
1.3859 2.53252 -0.429132
2.65245 1.32778 -0.671289
2.87769 1.14145 -0.714356
3.07692 0.955666 -0.752446
3.29452 0.775844 -0.794047
3.38047 0.580612 -0.81048
3.42321 0.380202 -0.818657
3.42321 0.173567 -0.818657
3.44453 -0.0294113 -0.822733
3.40186 -0.243549 -0.814572
0.790655 5.93943 -0.249846
1.36436 5.67488 -0.313427
1.64212 5.43565 -0.344211
1.86507 5.20356 -0.368917
2.01159 4.97799 -0.385156
2.06006 4.75754 -0.390527
2.10835 4.53793 -0.395879
2.15645 4.31915 -0.401213
2.15645 4.10124 -0.401213
2.10835 3.88298 -0.395879
2.03584 3.66352 -0.387844
1.96293 3.4428 -0.379765
1.86507 3.22002 -0.368917
1.71687 2.99348 -0.352493
1.5418 2.76307 -0.333092
1.5166 2.53845 -0.330297
1.36436 2.30487 -0.313427
3.64838 0.611511 -0.566554
3.66964 0.409582 -0.56891
3.64838 0.20117 -0.566554
3.54148 -0.0221186 -0.554709
3.47689 -0.239702 -0.547547
1.0205 5.92473 -0.193814
1.46151 5.67023 -0.207858
1.71422 5.43303 -0.215907
1.96214 5.20034 -0.223803
2.06 4.97713 -0.22692
2.15712 4.7556 -0.230013
2.18128 4.53705 -0.230781
2.2054 4.31891 -0.23155
2.27749 4.10112 -0.233846
2.18128 3.88333 -0.230781
2.13291 3.66466 -0.229242
2.08435 3.44517 -0.227695
1.98668 3.22324 -0.224583
1.83877 2.99759 -0.219874
1.71422 2.77058 -0.215907
1.61372 2.54286 -0.212705
1.487 2.31169 -0.208672
3.93572 0.444861 -0.286651
3.91474 0.238491 -0.285987
3.55247 -0.232029 -0.274451
1.39659 5.89955 -0.0961363
1.5496 5.6656 -0.0889828
1.87511 5.42524 -0.0737684
2.04707 5.19713 -0.0657322
2.09579 4.97627 -0.0634552
2.19266 4.75496 -0.0589297
2.28882 4.5353 -0.0544328
2.28882 4.31821 -0.0544328
2.26485 4.10115 -0.0555528
2.24083 3.88368 -0.0566787
2.19266 3.66543 -0.0589297
2.14432 3.44635 -0.0611872
2.09579 3.22644 -0.0634552
1.94909 3.00166 -0.0703126
1.87511 2.77801 -0.0737684
1.70084 2.54725 -0.081916
1.57492 2.31677 -0.0878004
4.21527 1.2886 0.0356076
4.49848 1.12361 0.0488377
4.55828 0.933339 0.0516347
3.75609 -0.197834 0.01414
1.57696 5.88721 0.0360389
1.65214 5.65947 0.0455046
1.973 5.4201 0.085899
2.14251 5.19288 0.107241
2.16654 4.97371 0.110266
2.23837 4.75367 0.119312
2.33352 4.53443 0.13129
2.33352 4.31775 0.13129
2.3098 4.10109 0.128307
2.28603 3.88403 0.125312
2.23837 3.66619 0.119312
2.19053 3.44752 0.113289
2.0943 3.22644 0.101172
1.9486 3.00166 0.0828297
1.9486 2.78169 0.0828297
1.65214 2.54433 0.0455046
4.87113 2.53808 0.450782
4.69711 1.93698 0.428878
4.65807 1.73655 0.423961
4.59928 1.53328 0.416558
4.48078 1.32193 0.401638
4.38109 1.11094 0.389089
4.75541 0.962523 0.436213
4.71657 0.760952 0.431327
4.71657 0.564647 0.431327
4.75541 0.374603 0.436213
4.17913 0.0807791 0.363658
3.97364 -0.156772 0.33779
1.64348 5.88198 0.174988
1.86356 5.64585 0.220468
2.03215 5.41627 0.25531
2.15121 5.19182 0.279913
2.19852 4.97201 0.289691
2.31602 4.75111 0.313973
2.36272 4.53356 0.323622
2.36272 4.31728 0.323622
2.33939 4.10103 0.3188
2.31602 3.88438 0.313973
2.29261 3.66732 0.309134
2.22211 3.44869 0.294563
2.12749 3.22803 0.275011
2.03215 3.0057 0.25531
1.91196 2.78046 0.230473
1.64348 2.54433 0.174988
4.95255 2.54705 0.858813
4.87742 2.34745 0.843294
4.80178 2.1465 0.827661
4.72564 1.94419 0.811928
4.64898 1.7405 0.796082
4.59114 1.53759 0.784132
4.57179 1.3383 0.780128
4.55242 1.13866 0.776125
4.51356 0.936015 0.768101
4.53301 0.74121 0.772113
4.97125 0.61153 0.862681
5.02717 0.426986 0.874243
4.29747 0.108261 0.723443
4.05701 -0.134706 0.673752
1.62468 6.10449 0.303396
1.81672 5.86816 0.3591
1.93527 5.63987 0.393486
2.09935 5.4112 0.441082
2.19215 5.18866 0.468002
2.23829 4.96948 0.481383
2.33004 4.74984 0.507998
2.35287 4.53313 0.514622
2.37566 4.31682 0.521235
2.35287 4.10098 0.514622
2.33004 3.88473 0.507998
2.33004 3.66845 0.507998
2.23829 3.44985 0.481383
2.16902 3.2304 0.46129
2.05269 3.00771 0.427548
1.88798 2.78046 0.379772
1.62468 2.54433 0.303396
4.85152 2.54578 1.23942
4.81469 2.34889 1.22872
4.74064 2.14812 1.20724
4.64737 1.94419 1.18019
4.57219 1.7405 1.15839
4.49649 1.53544 1.13643
4.5344 1.34294 1.14743
4.60984 1.15603 1.1693
4.62862 0.962523 1.17475
4.59103 0.760952 1.16385
4.5344 0.555714 1.14743
4.49649 0.352593 1.13643
4.30498 0.12186 1.08087
4.09049 -0.116491 1.01866
3.71022 -0.390642 0.908346
1.52497 6.11037 0.403175
1.78295 5.86816 0.500533
2.03557 5.63098 0.595869
2.10356 5.40868 0.621525
2.21603 5.18552 0.663971
2.283 4.96612 0.689248
2.34961 4.74794 0.714381
2.37172 4.53184 0.722731
2.34961 4.31659 0.714381
2.32745 4.10095 0.706019
2.37172 3.88542 0.722731
2.32745 3.6692 0.706019
2.283 3.45217 0.689248
2.21603 3.23355 0.663971
2.01282 3.00771 0.587284
1.89843 2.78291 0.544114
1.68977 2.55017 0.465367
4.70344 2.54322 1.6027
4.75722 2.35321 1.62299
4.68545 2.15296 1.59591
4.61319 1.95135 1.56864
4.52218 1.74642 1.53429
4.44882 1.54189 1.5066
4.50389 1.35217 1.52739
4.55868 1.16341 1.54806
4.54044 0.965149 1.54119
4.50389 0.763753 1.52739
4.46721 0.561674 1.51354
4.4304 0.358908 1.49965
4.24448 0.128625 1.42948
4.03625 -0.109251 1.3509
3.66709 -0.382798 1.21158
1.48864 6.11037 0.521582
1.6254 5.87677 0.585867
1.89427 5.6369 0.712251
2.17874 5.40116 0.845961
2.2434 5.18136 0.876357
2.26488 4.96445 0.886454
2.30771 4.74731 0.906584
2.35038 4.53098 0.926641
2.35038 4.31591 0.926641
2.32906 4.10086 0.91662
2.35038 3.88576 0.926641
2.35038 3.67068 0.926641
2.2434 3.45275 0.876357
2.17874 3.23433 0.845961
2.09195 3.0137 0.805167
1.89427 2.78535 0.712251
4.54579 2.54194 1.9586
4.66699 2.35751 2.01557
4.61522 2.15937 1.99124
4.5109 1.95491 1.9422
4.40553 1.74838 1.89267
4.33468 1.54403 1.85937
4.37017 1.35217 1.87605
4.42317 1.16341 1.90096
4.44077 0.970387 1.90924
4.40553 0.769341 1.89267
4.35244 0.564647 1.86772
4.28124 0.355753 1.83424
4.11924 0.128625 1.7581
3.88078 -0.116491 1.64601
3.6179 -0.371083 1.52244
0.902398 6.15864 0.328644
1.6827 5.86816 0.773285
1.91729 5.63098 0.906966
2.10565 5.40116 1.0143
2.18834 5.18033 1.06142
2.29086 4.9603 1.11983
2.31124 4.7448 1.13145
2.31124 4.53013 1.13145
2.31124 4.31545 1.13145
2.29086 4.1008 1.11983
2.33159 3.88627 1.14305
2.33159 3.67179 1.14305
2.27043 3.45561 1.1082
2.10565 3.23433 1.0143
2.06406 3.01568 0.990602
2.0014 2.795 0.954893
1.83255 2.566 0.858676
4.29416 2.5355 2.26139
4.56034 2.36321 2.41306
4.52745 2.16733 2.39433
4.44476 1.96553 2.3472
4.32782 1.75815 2.28057
4.24345 1.55257 2.23249
4.19249 1.34987 2.20344
4.26038 1.16341 2.24214
4.26038 0.967771 2.24214
4.22649 0.76655 2.22283
4.12412 0.552726 2.16449
4.03802 0.339898 2.11542
3.86358 0.108261 2.01603
3.61425 -0.142035 1.87395
3.56003 -0.355559 1.84305
0.917667 6.15453 0.428196
1.6578 5.86474 0.930737
1.8603 5.62951 1.06823
2.01957 5.40116 1.17637
2.13747 5.17826 1.25643
2.19593 4.9603 1.29612
2.27337 4.74293 1.3487
2.31188 4.52801 1.37484
2.33108 4.31409 1.38788
2.40752 4.10049 1.43979
2.33108 3.88712 1.38788
2.33108 3.67363 1.38788
2.17648 3.45561 1.28291
2.11792 3.23822 1.24315
1.9998 3.01666 1.16294
2.01957 2.80096 1.17637
1.90034 2.5759 1.09542
1.97998 2.36441 1.14949
4.41927 2.36887 2.80573
4.45027 2.17993 2.82678
4.37257 1.97952 2.77403
4.27847 1.77553 2.71014
4.1675 1.56738 2.63478
4.07134 1.35906 2.56949
4.03906 1.1585 2.54758
4.00668 0.957257 2.52559
3.99045 0.758146 2.51458
3.87605 0.540725 2.43689
3.59245 0.288239 2.24434
3.54153 0.0773175 2.20977
3.49035 -0.134706 2.17501
3.4389 -0.347837 2.14008
0.901864 6.15249 0.515382
1.61817 5.86133 1.08876
1.78967 5.62805 1.22603
1.90239 5.40241 1.31626
1.99536 5.18033 1.39068
2.08747 4.9603 1.46441
2.16055 4.74293 1.52291
2.16055 4.52885 1.52291
2.23308 4.31387 1.58097
2.35875 4.10038 1.68156
2.30509 3.88796 1.63861
2.26915 3.67472 1.60985
2.16055 3.45845 1.52291
2.03231 3.23899 1.42026
1.95827 3.01961 1.361
1.78967 2.7926 1.22603
1.92105 2.58428 1.3312
1.84618 2.36121 1.27128
4.25846 2.37589 3.20222
4.34522 2.1939 3.27166
4.28748 1.99675 3.22544
4.18551 1.79265 3.14381
4.09716 1.58823 3.0731
3.99296 1.3795 2.98969
3.90267 1.17076 2.91742
3.84197 0.965149 2.86882
3.79617 0.760952 2.83217
3.61063 0.528641 2.68366
3.37328 0.28168 2.49366
3.35724 0.0773175 2.48082
3.32507 -0.13105 2.45506
3.27661 -0.343987 2.41627
0.897061 6.1484 0.620594
1.52776 5.86133 1.21237
1.67029 5.62951 1.34609
1.79325 5.40241 1.46146
1.86279 5.18136 1.52672
1.94899 4.96113 1.6076
2.01738 4.74355 1.67176
2.08526 4.52758 1.73546
2.28594 4.10027 1.92375
2.28594 3.88912 1.92375
2.10216 3.4607 1.75131
1.93182 3.23977 1.59148
1.8801 3.02157 1.54295
1.74075 2.7962 1.4122
1.91461 2.59257 1.57533
3.88478 1.97952 3.42389
3.80184 1.77553 3.34608
3.71807 1.56948 3.26747
3.68995 1.37045 3.24109
3.66174 1.17076 3.21463
3.60504 0.965149 3.16142
3.49048 0.746874 3.05392
3.15225 0.479468 2.73658
3.13723 0.275099 2.7225
3.15225 0.0773175 2.73658
3.13723 -0.127401 2.7225
3.09204 -0.340143 2.68009
0.827889 6.15044 0.66961
1.39472 5.86474 1.29203
1.55953 5.62951 1.473
1.65693 5.40366 1.57995
1.73727 5.18136 1.66816
1.81686 4.96113 1.75555
1.88 4.74355 1.82489
2.35395 3.89156 2.34532
2.26429 3.68115 2.24687
1.84848 2.59805 1.79029
2.05125 2.40344 2.01294
2.09736 2.19647 2.06357
2.11268 1.98683 2.08038
2.15845 1.78175 2.13065
2.32417 1.59574 2.31262
2.83028 1.46904 2.86837
3.17326 1.32662 3.24498
3.02418 1.10073 3.08127
2.96926 0.889899 3.02097
2.92782 0.680544 2.97547
2.94166 0.482581 2.99065
2.94166 0.28168 2.99065
2.95547 0.0842357 3.00582
2.92782 -0.123758 2.97547
2.90007 -0.332475 2.945
0.805037 6.14636 0.774029
1.27388 5.86645 1.37794
1.42427 5.63098 1.57164
1.52786 5.40366 1.70508
1.6301 5.17929 1.83678
1.70232 4.95948 1.9298
2.31012 4.30584 2.7127
2.31012 4.09957 2.7127
2.18971 3.89188 2.55759
2.24347 3.68532 2.62683
1.75962 2.81736 2.0036
1.84477 2.61156 2.11329
2.01229 2.41706 2.32907
2.03986 2.21005 2.36458
1.94294 1.98683 2.23973
2.02609 1.78797 2.34683
2.17621 1.6024 2.5402
