4.12284 1.68178 -0.292613
4.12284 1.48035 -0.292613
4.12284 1.27893 -0.292613
4.14345 1.0801 -0.29327
4.12284 0.876076 -0.292613
4.14345 0.6776 -0.29327
4.14345 0.47635 -0.29327
4.14345 0.275099 -0.29327
4.19478 7.51412 0.0346462
4.19478 7.31322 0.0346462
4.19478 7.11232 0.0346462
4.19478 6.91142 0.0346462
4.19478 6.71052 0.0346462
4.19478 6.50961 0.0346462
4.19478 6.30871 0.0346462
4.19478 6.10781 0.0346462
4.21527 5.90532 0.0356034
4.23573 5.70318 0.0365599
4.23573 5.50262 0.0365599
4.21527 5.30314 0.0356034
4.23573 5.10152 0.0365599
4.23573 4.90096 0.0365599
4.23573 4.70041 0.0365599
4.23573 4.49986 0.0365599
4.23573 4.2993 0.0365599
4.23573 4.09875 0.0365599
4.25615 3.89835 0.0375156
4.25615 3.69797 0.0375156
4.25615 3.49759 0.0375156
4.25615 3.29721 0.0375156
4.25615 3.09683 0.0375156
4.27654 2.89746 0.0384702
4.25615 2.69607 0.0375156
4.27654 2.49705 0.0384702
4.27654 2.29684 0.0384702
4.25615 2.09493 0.0375156
4.23573 1.89267 0.0365599
4.25615 1.69417 0.0375156
4.27654 1.49601 0.0384702
4.25615 1.29341 0.0375156
4.25615 1.09303 0.0375156
4.25615 0.892649 0.0375156
4.27654 0.695188 0.0384702
4.27654 0.494981 0.0384702
4.27654 0.294774 0.0384702
4.30073 7.49629 0.378967
4.30073 7.29643 0.378967
4.30073 7.09657 0.378967
4.30073 6.89671 0.378967
4.30073 6.69685 0.378967
4.30073 6.49699 0.378967
4.32087 6.29521 0.381506
4.32087 6.09552 0.381506
4.34098 5.89426 0.384037
4.34098 5.69474 0.384037
4.34098 5.49522 0.384037
4.34098 5.29571 0.384037
4.34098 5.09619 0.384037
4.34098 4.89667 0.384037
4.36105 4.69661 0.386563
4.36105 4.49727 0.386563
4.36105 4.29792 0.386563
4.36105 4.09858 0.386563
4.36105 3.89923 0.386563
4.36105 3.69989 0.386563
4.36105 3.50054 0.386563
4.36105 3.3012 0.386563
4.36105 3.10185 0.386563
4.38109 2.90351 0.389085
4.38109 2.70433 0.389085
4.38109 2.50516 0.389085
4.36105 2.30447 0.386563
4.36105 2.10512 0.386563
4.36105 1.90578 0.386563
4.36105 1.70643 0.386563
4.36105 1.50709 0.386563
4.36105 1.30774 0.386563
4.36105 1.1084 0.386563
4.36105 0.909051 0.386563
4.38109 0.712594 0.389085
4.38109 0.51342 0.389085
4.44101 0.323907 0.39663
4.37652 7.47865 0.739777
4.37652 7.27982 0.739777
4.37652 7.08099 0.739777
4.37652 6.88216 0.739777
4.3962 6.68108 0.743845
4.3962 6.48242 0.743845
4.3962 6.28376 0.743845
4.41584 6.08337 0.747905
4.41584 5.88488 0.747905
4.41584 5.68639 0.747905
4.41584 5.4879 0.747905
4.41584 5.2894 0.747905
4.41584 5.09091 0.747905
4.41584 4.89242 0.747905
4.41584 4.69393 0.747905
4.43545 4.49507 0.751958
4.43545 4.29675 0.751958
4.45503 4.09841 0.756002
4.45503 3.90025 0.756002
4.43545 3.70179 0.751958
4.43545 3.50347 0.751958
4.43545 3.30514 0.751958
4.45503 3.10765 0.756002
4.45503 2.90949 0.756002
4.45503 2.71134 0.756002
4.43545 2.51186 0.751958
4.45503 2.31504 0.756002
4.43545 2.11521 0.751958
4.45503 1.91873 0.756002
4.43545 1.71857 0.751958
4.45503 1.52243 0.756002
4.45503 1.32428 0.756002
4.45503 1.12613 0.756002
4.45503 0.927974 0.756002
4.45503 0.729822 0.756002
4.45503 0.53167 0.756002
4.45503 0.333518 0.756002
4.43938 7.4583 1.11986
4.42028 7.26338 1.11432
4.42028 7.06556 1.11432
4.43938 6.86536 1.11986
4.42028 6.66994 1.11432
4.43938 6.47007 1.11986
4.43938 6.27243 1.11986
4.45845 6.07308 1.12539
4.45845 5.8756 1.12539
4.45845 5.67812 1.12539
4.45845 5.48065 1.12539
4.45845 5.28317 1.12539
4.45845 5.08569 1.12539
4.45845 4.88822 1.12539
4.47749 4.69021 1.13092
4.47749 4.4929 1.13092
4.47749 4.29559 1.13092
4.47749 4.09829 1.13092
4.47749 3.90098 1.13092
4.47749 3.70367 1.13092
4.47749 3.50636 1.13092
4.49649 3.3097 1.13643
4.49649 3.11256 1.13643
4.49649 2.91542 1.13643
4.49649 2.71828 1.13643
4.49649 2.52114 1.13643
4.49649 2.324 1.13643
4.49649 2.12686 1.13643
4.47749 1.92789 1.13092
4.47749 1.73059 1.13092
4.49649 1.53544 1.13643
4.49649 1.3383 1.13643
4.47749 1.13866 1.13092
4.47749 0.941353 1.13092
4.47749 0.744045 1.13092
4.47749 0.546736 1.13092
4.49649 0.352593 1.13643
4.4304 7.44391 1.49965
4.4304 7.2471 1.49965
4.4304 7.0503 1.49965
4.4304 6.85349 1.49965
4.4304 6.65669 1.49965
4.4304 6.45988 1.49965
4.44882 6.26121 1.5066
4.46721 6.06288 1.51354
4.46721 5.86641 1.51354
4.46721 5.66994 1.51354
4.46721 5.47347 1.51354
4.46721 5.277 1.51354
4.46721 5.08053 1.51354
4.46721 4.88405 1.51354
4.48556 4.68706 1.52047
4.48556 4.49075 1.52047
4.46721 4.29464 1.51354
4.48556 4.09814 1.52047
4.48556 3.90184 1.52047
4.48556 3.70553 1.52047
4.50389 3.5097 1.52739
4.50389 3.31356 1.52739
4.50389 3.11742 1.52739
4.50389 2.92128 1.52739
4.50389 2.72514 1.52739
4.50389 2.52901 1.52739
4.48556 2.33139 1.52047
4.50389 2.13673 1.52739
4.48556 1.93878 1.52047
4.50389 1.74445 1.52739
4.50389 1.54831 1.52739
4.50389 1.35217 1.52739
4.50389 1.15603 1.52739
4.46721 0.954618 1.51354
4.46721 0.758146 1.51354
4.48556 0.564647 1.52047
4.50389 0.371475 1.52739
4.40553 7.4268 1.89267
4.40553 7.23099 1.89267
4.40553 7.03518 1.89267
4.40553 6.83938 1.89267
4.40553 6.64357 1.89267
4.40553 6.44776 1.89267
4.40553 6.25196 1.89267
4.42317 6.05447 1.90096
4.42317 5.85883 1.90096
4.44077 5.66184 1.90924
4.44077 5.46636 1.90924
4.44077 5.27089 1.90924
4.44077 5.07541 1.90924
4.44077 4.87993 1.90924
4.44077 4.68446 1.90924
4.45835 4.48862 1.9175
4.45835 4.29331 1.9175
4.45835 4.098 1.9175
4.45835 3.90269 1.9175
4.45835 3.70738 1.9175
4.45835 3.51206 1.9175
4.4759 3.31738 1.92575
4.4759 3.12224 1.92575
4.4759 2.92709 1.92575
4.4759 2.73194 1.92575
4.4759 2.53679 1.92575
4.4759 2.34164 1.92575
4.45835 2.14488 1.9175
4.45835 1.94956 1.9175
4.45835 1.75425 1.9175
4.45835 1.55894 1.9175
4.45835 1.36363 1.9175
4.44077 1.16586 1.90924
4.44077 0.970387 1.90924
4.45835 0.777689 1.9175
4.45835 0.582376 1.9175
4.45835 0.387064 1.9175
4.32783 7.41268 2.28057
4.34462 7.21505 2.29014
4.34462 7.02023 2.29014
4.34462 6.82541 2.29014
4.34462 6.63059 2.29014
4.34462 6.43577 2.29014
4.34462 6.24095 2.29014
4.34462 6.04613 2.29014
4.34462 5.85131 2.29014
4.36138 5.65515 2.29969
4.36138 5.4605 2.29969
4.36138 5.26584 2.29969
4.36138 5.07119 2.29969
4.37811 4.87585 2.30922
4.37811 4.68136 2.30922
4.37811 4.48687 2.30922
4.37811 4.29238 2.30922
4.37811 4.09788 2.30922
4.37811 3.90339 2.30922
4.37811 3.7089 2.30922
4.37811 3.5144 2.30922
4.39482 3.32054 2.31874
4.39482 3.12621 2.31874
4.39482 2.93188 2.31874
4.39482 2.73755 2.31874
4.37811 2.54194 2.30922
4.37811 2.34745 2.30922
4.37811 2.15296 2.30922
4.37811 1.95846 2.30922
4.37811 1.76397 2.30922
4.37811 1.56948 2.30922
4.39482 1.37725 2.31874
4.41149 1.18533 2.32824
4.39482 0.988586 2.31874
4.37811 0.791507 2.30922
4.37811 0.597014 2.30922
4.39482 0.405597 2.31874
4.39482 0.211268 2.31874
4.21522 7.39867 2.66719
4.21522 7.2045 2.66719
4.21522 7.01034 2.66719
4.21522 6.81617 2.66719
4.21522 6.622 2.66719
4.23107 6.42586 2.67795
4.23107 6.23186 2.67795
4.23107 6.03785 2.67795
4.2469 5.84237 2.6887
4.2469 5.64852 2.6887
4.2469 5.45468 2.6887
4.2469 5.26084 2.6887
4.2469 5.067 2.6887
4.2469 4.87316 2.6887
4.2469 4.67931 2.6887
4.27848 4.48478 2.71014
4.27848 4.29126 2.71014
4.2627 4.09777 2.69943
4.27848 3.90422 2.71014
4.27848 3.71071 2.71014
4.27848 3.51719 2.71014
4.27848 3.32367 2.71014
4.27848 3.13015 2.71014
4.27848 2.93663 2.71014
4.27848 2.74312 2.71014
4.27848 2.5496 2.71014
4.27848 2.35608 2.71014
4.27848 2.16256 2.71014
4.27848 1.96904 2.71014
4.2627 1.77361 2.69943
4.2627 1.57993 2.69943
4.27848 1.38849 2.71014
4.2627 1.19257 2.69943
4.2627 0.998889 2.69943
4.2627 0.80521 2.69943
4.27848 0.614418 2.71014
4.27848 0.4209 2.71014
4.29422 0.230589 2.72083
4.05265 7.38755 3.03747
4.05265 7.19403 3.03747
4.05265 7.00051 3.03747
4.05265 6.807 3.03747
4.06751 6.61135 3.04937
4.06751 6.418 3.04937
4.06751 6.22464 3.04937
4.08235 6.02965 3.06124
4.08235 5.83645 3.06124
4.08235 5.64326 3.06124
4.08235 5.45006 3.06124
4.08235 5.25687 3.06124
4.08235 5.06367 3.06124
4.08235 4.87048 3.06124
4.08235 4.67728 3.06124
4.09716 4.48374 3.0731
4.11195 4.29052 3.08493
4.09716 4.09767 3.0731
4.11195 3.90478 3.08493
4.11195 3.7119 3.08493
4.11195 3.51903 3.08493
4.12671 3.32677 3.09675
4.12671 3.13406 3.09675
4.11195 2.94041 3.08493
4.11195 2.74753 3.08493
4.11195 2.55466 3.08493
4.12671 2.36321 3.09675
4.11195 2.16891 3.08493
4.11195 1.97604 3.08493
4.12671 1.78507 3.09675
4.11195 1.59029 3.08493
4.11195 1.39742 3.08493
4.11195 1.20455 3.08493
4.11195 1.01167 3.08493
4.11195 0.818798 3.08493
4.11195 0.625924 3.08493
4.11195 0.433051 3.08493
4.11195 0.240177 3.08493
3.85723 7.3765 3.39804
3.85723 7.18363 3.39804
3.87102 6.98833 3.41098
3.85723 6.79788 3.39804
3.85723 6.60501 3.39804
3.87102 6.41019 3.41098
3.87102 6.21747 3.41098
3.88478 6.02314 3.42389
3.88478 5.83058 3.42389
3.88478 5.63803 3.42389
3.88478 5.44548 3.42389
3.88478 5.25292 3.42389
3.88478 5.06037 3.42389
3.89853 4.86715 3.43679
3.89853 4.67476 3.43679
3.89853 4.48237 3.43679
3.89853 4.28997 3.43679
3.91225 4.09756 3.44966
3.91225 3.90532 3.44966
3.91225 3.71309 3.44966
3.91225 3.52086 3.44966
3.91225 3.32862 3.44966
3.91225 3.13639 3.44966
3.91225 2.94416 3.44966
3.92595 2.75302 3.46252
3.91225 2.55969 3.44966
3.91225 2.36746 3.44966
3.91225 2.17522 3.44966
3.91225 1.98299 3.44966
3.91225 1.79076 3.44966
3.91225 1.59852 3.44966
3.91225 1.40629 3.44966
3.91225 1.21406 3.44966
3.91225 1.02182 3.44966
3.91225 0.829588 3.44966
3.91225 0.637354 3.44966
3.91225 0.445121 3.44966
3.91225 0.252887 3.44966
3.62953 7.36553 3.74598
3.62953 7.1733 3.74598
3.61686 6.98348 3.73207
3.62953 6.78883 3.74598
3.62953 6.59659 3.74598
3.62953 6.40436 3.74598
3.64218 6.21035 3.75987
3.64218 6.01828 3.75987
3.64218 5.8262 3.75987
3.64218 5.63413 3.75987
3.6548 5.44092 3.77373
3.64218 5.24998 3.75987
3.64218 5.05791 3.75987
3.64218 4.86583 3.75987
3.6548 4.67326 3.77373
3.6548 4.48134 3.77373
3.6548 4.28943 3.77373
3.6548 4.09751 3.77373
3.6548 3.9056 3.77373
3.66741 3.71398 3.78758
3.66741 3.52222 3.78758
3.67999 3.33108 3.80139
3.67999 3.13948 3.80139
3.67999 2.94788 3.80139
3.67999 2.75628 3.80139
3.67999 2.56469 3.80139
3.69256 2.37449 3.81519
3.69256 2.18305 3.81519
3.67999 1.98989 3.80139
3.7051 1.80205 3.82896
3.69256 1.60873 3.81519
3.67999 1.4151 3.80139
3.67999 1.2235 3.80139
3.67999 1.0319 3.80139
3.67999 0.840307 3.80139
3.67999 0.648709 3.80139
3.67999 0.457111 3.80139
3.69256 0.268657 3.81519
3.34745 7.36007 4.04885
3.34745 7.16815 4.04885
3.34745 6.97624 4.04885
3.34745 6.78432 4.04885
3.34745 6.59241 4.04885
3.35893 6.39857 4.06364
3.35893 6.20681 4.06364
3.37039 6.01344 4.0784
3.37039 5.82185 4.0784
3.37039 5.63025 4.0784
3.37039 5.43865 4.0784
3.37039 5.24705 4.0784
3.38184 5.05464 4.09314
3.37039 4.86386 4.0784
3.38184 4.67176 4.09314
3.38184 4.48032 4.09314
3.39326 4.2887 4.10786
3.39326 4.09742 4.10786
3.39326 3.90614 4.10786
3.39326 3.71486 4.10786
3.39326 3.52358 4.10786
3.39326 3.3323 4.10786
3.39326 3.14102 4.10786
3.39326 2.94973 4.10786
3.41605 2.76061 4.13721
3.39326 2.56717 4.10786
3.39326 2.37589 4.10786
3.39326 2.18461 4.10786
3.39326 1.99333 4.10786
3.39326 1.80205 4.10786
3.39326 1.61076 4.10786
3.39326 1.41948 4.10786
3.40466 1.23055 4.12255
3.41605 1.04192 4.13721
3.41605 0.850954 4.13721
3.41605 0.659988 4.13721
3.41605 0.469022 4.13721
3.41605 0.278056 4.13721
3.04002 7.35463 4.33027
3.04002 7.16303 4.33027
3.04002 6.97143 4.33027
3.04002 6.77984 4.33027
3.04002 6.58824 4.33027
3.05027 6.39472 4.34586
3.0605 6.20152 4.36143
3.0605 6.01024 4.36143
3.0605 5.81895 4.36143
3.0605 5.62767 4.36143
3.0605 5.43639 4.36143
3.0605 5.24511 4.36143
3.0605 5.05383 4.36143
3.0605 4.86255 4.36143
3.07072 4.67077 4.37697
3.07072 4.47965 4.37697
3.08092 4.28834 4.39248
3.08092 4.09738 4.39248
3.08092 3.90641 4.39248
3.08092 3.71544 4.39248
3.08092 3.52448 4.39248
3.08092 3.33351 4.39248
3.08092 3.14255 4.39248
3.0911 2.9525 4.40797
3.10127 2.76277 4.42343
3.11142 2.57335 4.43887
3.12155 2.38424 4.45428
3.12155 2.1939 4.45428
3.0911 1.99846 4.40797
3.0911 1.80765 4.40797
3.10127 1.61886 4.42343
3.10127 1.42821 4.42343
3.10127 1.23756 4.42343
3.10127 1.0469 4.42343
3.10127 0.856251 4.42343
3.10127 0.6656 4.42343
3.10127 0.474948 4.42343
3.10127 0.284296 4.42343
2.70887 7.34921 4.58811
2.70887 7.15792 4.58811
2.70887 6.96664 4.58811
2.70887 6.77536 4.58811
2.70887 6.58408 4.58811
2.71784 6.39088 4.6044
2.72679 6.198 4.62066
2.72679 6.00704 4.62066
2.72679 5.81607 4.62066
2.72679 5.62511 4.62066
2.72679 5.43414 4.62066
2.72679 5.24317 4.62066
2.72679 5.05221 4.62066
2.72679 4.86124 4.62066
2.73573 4.66978 4.6369
2.73573 4.47897 4.6369
2.73573 4.28816 4.6369
2.74465 4.09733 4.65312
2.74465 3.90668 4.65312
2.74465 3.71603 4.65312
2.74465 3.52538 4.65312
2.74465 3.33472 4.65312
2.74465 3.14407 4.65312
2.74465 2.95342 4.65312
2.74465 2.76277 4.65312
2.74465 2.57212 4.65312
2.74465 2.38147 4.65312
2.74465 2.19081 4.65312
2.74465 2.00016 4.65312
2.75356 1.81137 4.6693
2.77133 1.62489 4.7016
2.78019 1.43687 4.7177
2.76245 1.24221 4.68546
2.76245 1.05187 4.68546
2.76245 0.861532 4.68546
2.76245 0.671193 4.68546
2.76245 0.480855 4.68546
2.76245 0.290516 4.68546
2.34054 7.34921 4.7865
2.34054 7.15792 4.7865
2.34054 6.96664 4.7865
2.3482 6.77313 4.80344
2.3482 6.58201 4.80344
2.35585 6.38897 4.82036
2.35585 6.198 4.82036
2.35585 6.00704 4.82036
2.35585 5.81607 4.82036
2.35585 5.62511 4.82036
2.35585 5.43414 4.82036
2.36349 5.24221 4.83725
2.36349 5.0514 4.83725
2.37111 4.85994 4.85411
2.37111 4.66929 4.85411
2.37111 4.47864 4.85411
2.37111 4.28798 4.85411
2.37111 4.09733 4.85411
2.37111 3.90668 4.85411
2.37111 3.71603 4.85411
2.37872 3.52582 4.87095
2.38632 3.33593 4.88776
2.37872 3.14483 4.87095
2.37872 2.95434 4.87095
2.38632 2.76492 4.88776
2.37872 2.57335 4.87095
2.38632 2.38424 4.88776
2.38632 2.1939 4.88776
2.38632 2.00356 4.88776
2.38632 1.81322 4.88776
2.38632 1.62289 4.88776
2.38632 1.43255 4.88776
2.38632 1.24221 4.88776
2.3939 1.05435 4.90454
2.40903 0.86942 4.93802
2.41658 0.682325 4.95471
2.40903 0.489678 4.93802
2.40147 0.296716 4.92129
1.96409 7.3465 4.97287
1.96409 7.15538 4.97287
1.97039 6.96187 4.99034
1.96409 6.77313 4.97287
1.97039 6.57994 4.99034
1.97039 6.38897 4.99034
1.97039 6.198 4.99034
1.97667 6.00544 5.00778
1.97667 5.81463 5.00778
1.97667 5.62382 5.00778
1.97667 5.43302 5.00778
1.98295 5.24124 5.02519
1.98295 5.05059 5.02519
1.97667 4.86059 5.00778
1.98295 4.66929 5.02519
1.98295 4.47864 5.02519
1.98922 4.2878 5.04257
1.98922 4.09731 5.04257
1.98295 3.90668 5.02519
1.99547 3.71661 5.05992
1.99547 3.52627 5.05992
1.99547 3.33593 5.05992
1.99547 3.14559 5.05992
1.99547 2.95526 5.05992
1.99547 2.76492 5.05992
1.99547 2.57458 5.05992
1.99547 2.38424 5.05992
1.99547 2.1939 5.05992
1.99547 2.00356 5.05992
2.00172 1.81508 5.07724
2.00172 1.62489 5.07724
2.00172 1.43471 5.07724
2.00172 1.24453 5.07724
2.00795 1.05682 5.09454
2.00795 0.866795 5.09454
2.00795 0.676769 5.09454
2.01417 0.489678 5.1118
2.01417 0.299808 5.1118
1.56787 7.3465 5.11165
1.56296 7.15792 5.09371
1.56296 6.96664 5.09371
1.57278 6.7709 5.12955
1.56787 6.58201 5.11165
1.56787 6.39088 5.11165
1.57278 6.198 5.12955
1.57767 6.00544 5.14743
1.57767 5.81463 5.14743
1.57767 5.62382 5.14743
1.57767 5.43302 5.14743
1.58257 5.24124 5.16528
1.58257 5.05059 5.16528
1.58257 4.85994 5.16528
1.58257 4.66929 5.16528
1.58257 4.47864 5.16528
1.58257 4.28798 5.16528
1.58745 4.09731 5.18309
1.58745 3.90681 5.18309
1.59232 3.71661 5.20088
1.59232 3.52627 5.20088
1.59232 3.33593 5.20088
1.59232 3.14559 5.20088
1.59232 2.95526 5.20088
1.59719 2.76599 5.21865
1.59232 2.57458 5.20088
1.59232 2.38424 5.20088
1.59232 2.1939 5.20088
1.59719 2.00526 5.21865
1.59719 1.81508 5.21865
1.60205 1.6269 5.23638
1.60205 1.43687 5.23638
1.60205 1.24685 5.23638
1.60205 1.05682 5.23638
1.60205 0.866795 5.23638
1.6069 0.679549 5.25408
1.6069 0.489678 5.25408
1.6069 0.299808 5.25408
1.15849 7.34921 5.20063
1.15849 7.15792 5.20063
1.15849 6.96664 5.20063
1.15849 6.77536 5.20063
1.16198 6.58201 5.2189
1.16547 6.38897 5.23714
1.16547 6.198 5.23714
1.16547 6.00704 5.23714
1.16547 5.81607 5.23714
1.16547 5.62511 5.23714
1.16547 5.43414 5.23714
1.16895 5.24221 5.25534
1.16895 5.0514 5.25534
1.16895 4.86059 5.25534
1.17243 4.66929 5.27352
1.17243 4.47864 5.27352
1.17243 4.28798 5.27352
1.17243 4.09733 5.27352
1.17589 3.90681 5.29167
1.17589 3.71632 5.29167
1.17936 3.52627 5.30978
1.17936 3.33593 5.30978
1.17936 3.14559 5.30978
1.17936 2.95526 5.30978
1.18281 2.76599 5.32787
1.18281 2.57581 5.32787
1.18281 2.38562 5.32787
1.18281 2.19544 5.32787
1.18627 2.00695 5.34593
1.18281 1.81508 5.32787
1.18627 1.6269 5.34593
1.18281 1.43471 5.32787
1.18627 1.24685 5.34593
1.18627 1.05682 5.34593
1.18627 0.866795 5.34593
1.18627 0.676769 5.34593
1.18971 0.489678 5.36396
1.18971 0.299808 5.36396
0.742773 7.35463 5.23844
0.742773 7.16303 5.23844
0.742773 6.97143 5.23844
0.742773 6.77984 5.23844
0.744829 6.58616 5.25698
0.744829 6.39472 5.25698
0.746883 6.20152 5.2755
0.746883 6.01024 5.2755
0.746883 5.81895 5.2755
0.746883 5.62767 5.2755
0.746883 5.43639 5.2755
0.748928 5.24414 5.29398
0.750976 5.05221 5.31243
0.748928 4.86189 5.29398
0.750976 4.67028 5.31243
0.750976 4.47931 5.31243
0.75302 4.28816 5.33086
0.750976 4.09738 5.31243
0.755056 3.90668 5.34925
0.755056 3.71603 5.34925
0.755056 3.52538 5.34925
0.755056 3.33472 5.34925
0.755056 3.14407 5.34925
0.757089 2.95434 5.36761
0.75912 2.76492 5.38595
0.75912 2.57458 5.38595
0.75912 2.38424 5.38595
0.761148 2.19544 5.40425
0.763178 2.00695 5.42252
0.761148 1.81508 5.40425
0.763178 1.6269 5.42252
0.763178 1.43687 5.42252
0.763178 1.24685 5.42252
0.763178 1.05682 5.42252
0.763178 0.866795 5.42252
0.763178 0.676769 5.42252
0.763178 0.486742 5.42252
0.763178 0.296716 5.42252
0.328291 7.36007 5.24317
0.328291 7.16815 5.24317
0.328291 6.97624 5.24317
0.328291 6.78432 5.24317
0.328291 6.59241 5.24317
0.328888 6.39857 5.26188
0.32948 6.20504 5.28057
0.32948 6.01344 5.28057
0.32948 5.82185 5.28057
0.32948 5.63025 5.28057
0.32948 5.43865 5.28057
0.330075 5.24608 5.29922
0.33067 5.05383 5.31783
0.330075 4.8632 5.29922
0.33067 4.67127 5.31783
0.33067 4.47998 5.31783
0.331258 4.28852 5.33642
0.331852 4.09738 5.35498
0.331852 3.90641 5.35498
0.331852 3.71544 5.35498
0.331852 3.52448 5.35498
0.331852 3.33351 5.35498
0.332444 3.14331 5.37351
0.333031 2.95342 5.392
0.333031 2.76277 5.392
0.333031 2.57212 5.392
0.333031 2.38147 5.392
0.333031 2.19081 5.392
0.333031 2.00016 5.392
0.333031 1.80951 5.392
0.333031 1.61886 5.392
0.333031 1.42821 5.392
0.333031 1.23756 5.392
0.333031 1.0469 5.392
0.334203 0.861532 5.4289
0.334203 0.671193 5.4289
0.334203 0.480855 5.4289
0.334203 0.290516 5.4289
-0.0814645 7.36827 5.19648
-0.0823412 7.1733 5.21527
-0.0823412 6.98106 5.21527
-0.0823412 6.78883 5.21527
-0.0823412 6.59659 5.21527
-0.0823412 6.40436 5.21527
-0.0840957 6.20858 5.25277
-0.0840957 6.01666 5.25277
-0.0840957 5.82475 5.25277
-0.0840957 5.63283 5.25277
-0.0840957 5.44092 5.25277
-0.0840957 5.249 5.25277
-0.0849683 5.05627 5.27147
-0.0849683 4.86452 5.27147
-0.0858445 4.67226 5.29014
-0.0858445 4.48066 5.29014
-0.0858445 4.28907 5.29014
-0.0858445 4.09747 5.29014
-0.0867142 3.90601 5.30878
-0.0875822 3.71486 5.32738
-0.0875822 3.52358 5.32738
-0.0875822 3.3323 5.32738
-0.0884537 3.14178 5.34596
-0.0884537 2.95066 5.34596
-0.0884537 2.75953 5.34596
-0.0884537 2.56841 5.34596
-0.0884537 2.37729 5.34596
-0.0893183 2.18772 5.36451
-0.0893183 1.99675 5.36451
-0.0884537 1.80392 5.34596
-0.0893183 1.61482 5.36451
-0.0893183 1.42385 5.36451
-0.0893183 1.23289 5.36451
-0.0901812 1.04441 5.38302
-0.0901812 0.853605 5.38302
-0.0910474 0.6656 5.40151
-0.0910474 0.474948 5.40151
-0.0910474 0.284296 5.40151
-0.481852 7.3765 5.11788
-0.481852 7.18363 5.11788
-0.481852 6.99076 5.11788
-0.484212 6.79561 5.13664
-0.481852 6.60501 5.11788
-0.484212 6.41019 5.13664
-0.486572 6.21569 5.15537
-0.486572 6.02314 5.15537
-0.486572 5.83058 5.15537
-0.486572 5.63803 5.15537
-0.488925 5.44433 5.17407
-0.491273 5.25096 5.19274
-0.491273 5.05873 5.19274
-0.491273 4.86649 5.19274
-0.491273 4.67426 5.19274
-0.493623 4.48168 5.21137
-0.495964 4.28943 5.22998
-0.495964 4.09751 5.22998
-0.495964 3.9056 5.22998
-0.498301 3.71398 5.24855
-0.498301 3.52222 5.24855
-0.498301 3.33047 5.24855
-0.500639 3.13948 5.2671
-0.500639 2.94788 5.2671
-0.500639 2.75628 5.2671
-0.500639 2.56469 5.2671
-0.500639 2.37309 5.2671
-0.500639 2.18149 5.2671
-0.500639 1.98989 5.2671
-0.500639 1.7983 5.2671
-0.500639 1.6067 5.2671
-0.502969 1.41729 5.28561
-0.505294 1.2282 5.30409
-0.505294 1.03692 5.30409
-0.505294 0.845639 5.30409
-0.505294 0.654358 5.30409
-0.505294 0.463076 5.30409
-0.509938 0.278056 5.34096
-0.866542 7.38755 4.98992
-0.866542 7.19403 4.98992
-0.866542 7.00051 4.98992
-0.870394 6.80471 5.00856
-0.870394 6.61135 5.00856
-0.874236 6.41604 5.02717
-0.874236 6.22285 5.02717
-0.878077 6.02802 5.04575
-0.878077 5.83498 5.04575
-0.878077 5.64195 5.04575
-0.881911 5.44777 5.0643
-0.881911 5.25489 5.0643
-0.881911 5.06202 5.0643
-0.881911 4.86914 5.0643
-0.885736 4.67577 5.08282
-0.885736 4.48305 5.08282
-0.889558 4.29016 5.1013
-0.889558 4.0976 5.1013
-0.89337 3.90519 5.11976
-0.89337 3.7128 5.11976
-0.89337 3.5204 5.11976
-0.897176 3.32862 5.13818
-0.897176 3.13639 5.13818
-0.897176 2.94416 5.13818
-0.897176 2.75192 5.13818
-0.897176 2.55969 5.13818
-0.897176 2.36746 5.13818
-0.900981 2.17679 5.15658
-0.904775 1.98645 5.17494
-0.900981 1.79265 5.15658
-0.904775 1.60262 5.17494
-0.904775 1.4107 5.17494
-0.904775 1.21879 5.17494
-0.904775 1.02687 5.17494
-0.904775 0.834956 5.17494
-0.904775 0.643041 5.17494
-0.912348 0.457111 5.21158
-0.912348 0.265513 5.21158
-1.23407 7.39867 4.83312
-1.23407 7.2045 4.83312
-1.23407 7.01034 4.83312
-1.23941 6.81387 4.85152
-1.24474 6.61773 4.8699
-1.24474 6.42389 4.8699
-1.24474 6.23005 4.8699
-1.24474 6.03621 4.8699
-1.25006 5.84088 4.88824
-1.24474 5.64852 4.8699
-1.25006 5.45352 4.88824
-1.25538 5.25885 4.90655
-1.25006 5.06616 4.88824
-1.25538 4.87181 4.90655
-1.25538 4.6783 4.90655
-1.26068 4.48443 4.92483
-1.26597 4.29089 4.94308
-1.26597 4.0977 4.94308
-1.26597 3.9045 4.94308
-1.26597 3.71131 4.94308
-1.27126 3.51857 4.9613
-1.27126 3.32554 4.9613
-1.27653 3.13328 4.97949
-1.27653 2.94041 4.97949
-1.27653 2.74753 4.97949
-1.27653 2.55466 4.97949
-1.2818 2.36321 4.99765
-1.2818 2.1705 4.99765
-1.2818 1.97778 4.99765
-1.2818 1.78507 4.99765
-1.28706 1.59441 5.01578
-1.28706 1.40186 5.01578
-1.28706 1.20931 5.01578
-1.28706 1.01675 5.01578
-1.28706 0.824202 5.01578
-1.28706 0.631649 5.01578
-1.28706 0.439096 5.01578
-1.29231 0.249718 5.03388
-1.58229 7.40987 4.64938
-1.58229 7.21505 4.64938
-1.58229 7.02023 4.64938
-1.5891 6.82309 4.66743
-1.59591 6.62629 4.68545
-1.59591 6.43179 4.68545
-1.59591 6.2373 4.68545
-1.59591 6.04281 4.68545
-1.60269 5.84683 4.70344
-1.60269 5.6525 4.70344
-1.60269 5.45817 4.70344
-1.60269 5.26384 4.70344
-1.60947 5.06867 4.7214
-1.60947 4.8745 4.7214
-1.60947 4.68034 4.7214
-1.62299 4.48547 4.75722
-1.62299 4.29163 4.75722
-1.62299 4.09779 4.75722
-1.62299 3.90395 4.75722
-1.62299 3.71011 4.75722
-1.62973 3.51673 4.77509
-1.63646 3.32367 4.79293
-1.63646 3.13015 4.79293
-1.63646 2.93663 4.79293
-1.63646 2.74312 4.79293
-1.63646 2.5496 4.79293
-1.63646 2.35608 4.79293
-1.64319 2.16415 4.81074
-1.63646 1.96904 4.79293
-1.6499 1.77935 4.82852
-1.6499 1.58616 4.82852
-1.64319 1.39073 4.81074
-1.6499 1.19977 4.82852
-1.6499 1.00657 4.82852
-1.6499 0.813376 4.82852
-1.6499 0.620181 4.82852
-1.6566 0.430021 4.84627
-1.66328 0.240177 4.86399
-1.90096 7.42397 4.42317
-1.90096 7.22832 4.42317
-1.90924 7.03018 4.44077
-1.90096 6.83704 4.42317
-1.90924 6.63923 4.44077
-1.90924 6.44375 4.44077
-1.92575 6.2446 4.4759
-1.92575 6.04946 4.4759
-1.92575 5.85431 4.4759
-1.92575 5.65916 4.4759
-1.92575 5.46401 4.4759
-1.93398 5.26786 4.49342
-1.93398 5.07287 4.49342
-1.9422 4.87721 4.5109
-1.9422 4.68239 4.5109
-1.95041 4.48722 4.52836
-1.95041 4.29256 4.52836
-1.95041 4.09791 4.52836
-1.9586 3.90339 4.54579
-1.9586 3.7089 4.54579
-1.9586 3.5144 4.54579
-1.9586 3.31991 4.54579
-1.96678 3.12621 4.56319
-1.97495 2.93284 4.58056
-1.96678 2.73755 4.56319
-1.97495 2.5445 4.58056
-1.97495 2.35034 4.58056
-1.97495 2.15617 4.58056
-1.97495 1.962 4.58056
-1.9831 1.76976 4.59791
-1.97495 1.57367 4.58056
-1.9831 1.38175 4.59791
-1.9831 1.18775 4.59791
-1.9831 0.993746 4.59791
-1.99124 0.802478 4.61522
-1.99124 0.608636 4.61522
-1.99124 0.414794 4.61522
-1.99936 0.22417 4.6325
-2.19373 7.43819 4.17544
-2.19373 7.24171 4.17544
-2.20345 7.04272 4.19248
-2.20345 6.84642 4.19248
-2.20345 6.65011 4.19248
-2.21314 6.45179 4.2095
-2.21314 6.25565 4.2095
-2.21314 6.05951 4.2095
-2.22282 5.86185 4.22649
-2.23249 5.66453 4.24345
-2.23249 5.46872 4.24345
-2.23249 5.27292 4.24345
-2.23249 5.07711 4.24345
-2.23249 4.8813 4.24345
-2.24214 4.68497 4.26038
-2.25177 4.48898 4.27729
-2.25177 4.2935 4.27729
-2.25177 4.09802 4.27729
-2.25177 3.90255 4.27729
-2.27098 3.70768 4.31101
-2.27098 3.51253 4.31101
-2.27098 3.31738 4.31101
-2.27098 3.12224 4.31101
-2.29013 2.92901 4.34462
-2.27098 2.73194 4.31101
-2.29013 2.53937 4.34462
-2.29013 2.34455 4.34462
-2.28057 2.14812 4.32783
-2.29013 1.95491 4.34462
-2.29013 1.76009 4.34462
-2.29013 1.56527 4.34462
-2.29013 1.37045 4.34462
-2.29013 1.17563 4.34462
-2.29969 0.983408 4.36138
-2.29969 0.788753 4.36138
-2.29969 0.594096 4.36138
-2.29969 0.39944 4.36138
-2.30922 0.208029 4.37811
-2.45918 7.45253 3.90887
-2.45918 7.25522 3.90887
-2.4703 7.05537 3.92524
-2.4703 6.85823 3.92524
-2.4703 6.66109 3.92524
-2.4814 6.46191 3.94159
-2.4814 6.26494 3.94159
-2.49247 6.06627 3.9579
-2.49247 5.86946 3.9579
-2.49247 5.67266 3.9579
-2.49247 5.47585 3.9579
-2.49247 5.27905 3.9579
-2.51457 5.08053 3.99045
-2.51457 4.88405 3.99045
-2.51457 4.68758 3.99045
-2.52559 4.49075 4.00668
-2.5366 4.29426 4.02288
-2.52559 4.09814 4.00668
-2.5366 3.90198 4.02288
-2.5366 3.70584 4.02288
-2.5366 3.5097 4.02288
-2.54758 3.3142 4.03906
-2.55854 3.11903 4.05521
-2.55854 2.92323 4.05521
-2.55854 2.72742 4.05521
-2.55854 2.53161 4.05521
-2.55854 2.3358 4.05521
-2.55854 2.13999 4.05521
-2.55854 1.94419 4.05521
-2.56949 1.75034 4.07133
-2.56949 1.5547 4.07133
-2.55854 1.35676 4.05521
-2.55854 1.16096 4.05521
-2.55854 0.965149 4.05521
-2.56949 0.772129 4.07133
-2.58042 0.579433 4.08743
-2.58042 0.383956 4.08743
-2.69614 7.46699 3.62624
-2.69614 7.26884 3.62624
-2.69614 7.07069 3.62624
-2.70862 6.87014 3.64182
-2.70862 6.67216 3.64182
-2.70862 6.47418 3.64182
-2.72107 6.27431 3.65737
-2.72107 6.0765 3.65737
-2.72107 5.87868 3.65737
-2.7335 5.67949 3.6729
-2.7335 5.48185 3.6729
-2.7459 5.28317 3.6884
-2.7459 5.08569 3.6884
-2.7459 4.88822 3.6884
-2.75829 4.69021 3.70388
-2.77065 4.49254 3.71933
-2.77065 4.2954 3.71933
-2.77065 4.09826 3.71933
-2.77065 3.90112 3.71933
-2.77065 3.70398 3.71933
-2.783 3.50732 3.73475
-2.783 3.31035 3.73475
-2.79532 3.11419 3.75014
-2.81991 2.91934 3.78086
-2.79532 2.72057 3.75014
-2.79532 2.52377 3.75014
-2.79532 2.32696 3.75014
-2.80762 2.1318 3.76551
-2.80762 1.93517 3.76551
-2.80762 1.73853 3.76551
-2.81991 1.54403 3.78086
-2.80762 1.34525 3.76551
-2.81991 1.15109 3.78086
-2.81991 0.954618 3.78086
-2.81991 0.758146 3.78086
-2.81991 0.561674 3.78086
-2.81991 0.365202 3.78086
-2.88992 7.48451 3.31568
-2.88992 7.28534 3.31568
-2.88992 7.08616 3.31568
-2.88992 6.88699 3.31568
-2.91749 6.68332 3.34506
-2.91749 6.48449 3.34506
-2.91749 6.28566 3.34506
-2.91749 6.08683 3.34506
-2.91749 5.88799 3.34506
-2.94496 5.68639 3.37434
-2.94496 5.4879 3.37434
-2.94496 5.2894 3.37434
-2.95867 5.09004 3.38895
-2.95867 4.89172 3.38895
-2.97234 4.69286 3.40353
-2.97234 4.49471 3.40353
-2.97234 4.29656 3.40353
-2.97234 4.09841 3.40353
-2.986 3.9004 3.41808
-2.99963 3.70273 3.43261
-2.99963 3.50492 3.43261
-2.99963 3.3071 3.43261
-2.99963 3.10929 3.43261
-3.02683 2.91345 3.46159
-2.99963 2.71366 3.43261
-3.01324 2.51717 3.44711
-3.01324 2.31953 3.44711
-3.01324 2.12188 3.44711
-3.01324 1.92424 3.44711
-3.02683 1.72859 3.46159
-3.02683 1.53112 3.46159
-3.02683 1.33364 3.46159
-3.02683 1.13616 3.46159
-3.02683 0.938686 3.46159
-3.05393 0.746874 3.49048
-3.04039 0.546736 3.47605
-3.04039 0.349428 3.47605
-3.05117 7.50222 2.99677
-3.05117 7.30201 2.99677
-3.06623 7.09918 3.01048
-3.06623 6.89915 3.01048
-3.08127 6.69685 3.02418
-3.08127 6.49699 3.02418
-3.09628 6.29521 3.03785
-3.09628 6.09552 3.03785
-3.11126 5.89426 3.05149
-3.11126 5.69474 3.05149
-3.11126 5.49522 3.05149
-3.11126 5.29571 3.05149
-3.11126 5.09619 3.05149
-3.12622 4.89596 3.06512
-3.14115 4.69608 3.07872
-3.14115 4.4969 3.07872
-3.15606 4.29753 3.09229
-3.15606 4.09853 3.09229
-3.15606 3.89953 3.09229
-3.17094 3.70084 3.10585
-3.17094 3.50201 3.10585
-3.1858 3.30383 3.11938
-3.17094 3.10434 3.10585
-3.20063 2.90751 3.13288
-3.20063 2.70901 3.13288
-3.20063 2.51052 3.13288
-3.20063 2.31203 3.13288
-3.20063 2.11354 3.13288
-3.20063 1.91505 3.13288
-3.20063 1.71656 3.13288
-3.20063 1.51807 3.13288
-3.20063 1.31957 3.13288
-3.21544 1.12361 3.14637
-3.21544 0.925285 3.14637
-3.20063 0.724099 3.13288
-3.21544 0.528641 3.14637
-3.23022 0.333518 3.15983
-3.19601 7.51711 2.68534
-3.19601 7.31603 2.68534
-3.19601 7.11496 2.68534
-3.21224 6.91142 2.69795
-3.21224 6.71052 2.69795
-3.22844 6.5075 2.71053
-3.24462 6.30484 2.72309
-3.24462 6.10428 2.72309
-3.24462 5.90373 2.72309
-3.24462 5.70318 2.72309
-3.24462 5.50262 2.72309
-3.26077 5.30101 2.73562
-3.27689 5.09974 2.74814
-3.27689 4.89953 2.74814
-3.27689 4.69932 2.74814
-3.29298 4.49874 2.76063
-3.29298 4.29871 2.76063
-3.30904 4.09865 2.7731
-3.30904 3.89879 2.7731
-3.30904 3.69893 2.7731
-3.32508 3.49956 2.78555
-3.32508 3.29987 2.78555
-3.34109 3.10102 2.79798
-3.37303 2.90351 2.82278
-3.34109 2.70198 2.79798
-3.34109 2.50247 2.79798
-3.34109 2.30295 2.79798
-3.34109 2.10343 2.79798
-3.34109 1.90391 2.79798
-3.35707 1.70643 2.81039
-3.34109 1.50488 2.79798
-3.35707 1.30774 2.81039
-3.37303 1.11094 2.82278
-3.37303 0.911768 2.82278
-3.35707 0.709706 2.81039
-3.37303 0.51342 2.82278
-3.37303 0.314246 2.82278
-3.31054 7.53213 2.36957
-3.31054 7.33018 2.36957
-3.31054 7.12823 2.36957
-3.31054 6.92628 2.36957
-3.31054 6.72432 2.36957
-3.32786 6.52024 2.38095
-3.34515 6.3165 2.39232
-3.34515 6.1149 2.39232
-3.34515 5.9133 2.39232
-3.34515 5.7117 2.39232
-3.36241 5.50885 2.40367
-3.37964 5.30635 2.415
-3.37964 5.1051 2.415
-3.37964 4.90385 2.415
-3.41401 4.7015 2.4376
-3.39684 4.50098 2.42631
-3.41401 4.2997 2.4376
-3.41401 4.0988 2.4376
-3.41401 3.8979 2.4376
-3.44827 3.69764 2.46012
-3.43115 3.4966 2.44887
-3.44827 3.29654 2.46012
-3.44827 3.09598 2.46012
-3.4824 2.89746 2.48256
-3.44827 2.69488 2.46012
-3.44827 2.49432 2.46012
-3.4824 2.29684 2.48256
-3.46535 2.09493 2.47135
-3.4824 1.89643 2.48256
-3.46535 1.69417 2.47135
-3.4824 1.49601 2.48256
-3.46535 1.29341 2.47135
-3.4824 1.0956 2.48256
-3.4824 0.895394 2.48256
-3.4824 0.695188 2.48256
-3.4824 0.494981 2.48256
-3.4824 0.294774 2.48256
-3.37661 7.55033 2.04219
-3.39497 7.34445 2.05229
-3.37661 7.14431 2.04219
-3.39497 6.93878 2.05229
-3.39497 6.73594 2.05229
-3.41329 6.53095 2.06237
-3.41329 6.32829 2.06237
-3.41329 6.12564 2.06237
-3.43157 5.92136 2.07243
-3.43157 5.71888 2.07243
-3.44983 5.51513 2.08248
-3.44983 5.31283 2.08248
-3.44983 5.11052 2.08248
-3.46805 4.90749 2.09251
-3.46805 4.70536 2.09251
-3.48625 4.50286 2.10252
-3.48625 4.3009 2.10252
-3.48625 4.09895 2.10252
-3.50441 3.89715 2.11251
-3.52254 3.6957 2.12249
-3.52254 3.4941 2.12249
-3.52254 3.2925 2.12249
-3.52254 3.0909 2.12249
-3.5587 2.89135 2.14239
-3.52254 2.6877 2.12249
-3.54064 2.48748 2.13245
-3.5587 2.2876 2.14239
-3.54064 2.08463 2.13245
-3.5587 1.8851 2.14239
-3.5587 1.68385 2.14239
-3.5587 1.4826 2.14239
-3.5587 1.28135 2.14239
-3.5587 1.0801 2.14239
-3.5587 0.87885 2.14239
-3.5587 0.6776 2.14239
-3.5587 0.47635 2.14239
-3.5587 0.275099 2.14239
-3.43049 7.56565 1.7276
-3.44974 7.35885 1.7363
-3.44974 7.15512 1.7363
-3.44974 6.95139 1.7363
-3.44974 6.74766 1.7363
-3.44974 6.54394 1.7363
-3.46897 6.33821 1.74499
-3.46897 6.13467 1.74499
-3.48815 5.92948 1.75367
-3.48815 5.72611 1.75367
-3.48815 5.52274 1.75367
-3.48815 5.31937 1.75367
-3.52643 5.11417 1.77097
-3.52643 4.91116 1.77097
-3.52643 4.70814 1.77097
-3.54552 4.50475 1.77959
-3.54552 4.30191 1.77959
-3.54552 4.09908 1.77959
-3.56457 3.89639 1.78821
-3.56457 3.69374 1.78821
-3.56457 3.49108 1.78821
-3.56457 3.28842 1.78821
-3.56457 3.08576 1.78821
-3.60259 2.88518 1.80539
-3.60259 2.68287 1.80539
-3.60259 2.48057 1.80539
-3.60259 2.27826 1.80539
-3.60259 2.07596 1.80539
-3.60259 1.87365 1.80539
-3.60259 1.67135 1.80539
-3.60259 1.46904 1.80539
-3.60259 1.26674 1.80539
-3.60259 1.06444 1.80539
-3.60259 0.862132 1.80539
-3.60259 0.659827 1.80539
-3.60259 0.457523 1.80539
-3.62154 0.258546 1.81396
-3.45553 7.5811 1.4171
-3.45553 7.37629 1.4171
-3.45553 7.17148 1.4171
-3.47559 6.96412 1.42433
-3.47559 6.75949 1.42433
-3.47559 6.55486 1.42433
-3.49561 6.34822 1.43154
-3.49561 6.14377 1.43154
-3.49561 5.93933 1.43154
-3.51559 5.73341 1.43875
-3.53554 5.52786 1.44594
-3.53554 5.32378 1.44594
-3.53554 5.11969 1.44594
-3.55546 4.91486 1.45312
-3.57534 4.71039 1.46028
-3.57534 4.50666 1.46028
-3.61499 4.30253 1.47458
-3.61499 4.09915 1.47458
-3.61499 3.89579 1.47458
-3.57534 3.69175 1.46028
-3.59518 3.48854 1.46744
-3.59518 3.28499 1.46744
-3.61499 3.08231 1.47458
-3.63477 2.87998 1.48171
-3.61499 2.67557 1.47458
-3.61499 2.4722 1.47458
-3.61499 2.26883 1.47458
-3.61499 2.06546 1.47458
-3.61499 1.86209 1.47458
-3.61499 1.65872 1.47458
-3.61499 1.45535 1.47458
-3.61499 1.25198 1.47458
-3.63477 1.05126 1.48171
-3.61499 0.845237 1.47458
-3.63477 0.644874 1.48171
-3.65451 0.444861 1.48883
-3.63477 0.238491 1.48171
-3.45271 7.59668 1.11329
-3.45271 7.39097 1.11329
-3.47345 7.18249 1.11897
-3.47345 6.97695 1.11897
-3.47345 6.77142 1.11897
-3.47345 6.56588 1.11897
-3.49416 6.35832 1.12465
-3.51483 6.15112 1.13031
-3.51483 5.94595 1.13031
-3.51483 5.74078 1.13031
-3.55606 5.53302 1.14161
-3.55606 5.32821 1.14161
-3.55606 5.1234 1.14161
-3.55606 4.91859 1.14161
-3.55606 4.71379 1.14161
-3.59715 4.5082 1.15287
-3.59715 4.30376 1.15287
-3.59715 4.09931 1.15287
-3.61764 3.89502 1.15848
-3.61764 3.69075 1.15848
-3.63809 3.487 1.16409
-3.63809 3.28291 1.16409
-3.63809 3.07883 1.16409
-3.63809 2.87474 1.16409
-3.61764 2.66942 1.15848
-3.61764 2.46515 1.15848
-3.63809 2.26248 1.16409
-3.63809 2.05839 1.16409
-3.63809 1.85431 1.16409
-3.63809 1.65022 1.16409
-3.63809 1.44614 1.16409
-3.63809 1.24205 1.16409
-3.61764 1.03529 1.15848
-3.63809 0.833876 1.16409
-3.63809 0.62979 1.16409
-3.63809 0.425703 1.16409
-3.63809 0.221617 1.16409
-3.42321 7.61241 0.818656
-3.42321 7.40578 0.818656
-3.42321 7.19914 0.818656
-3.42321 6.99251 0.818656
-3.4658 6.78104 0.826798
-3.44453 6.577 0.822729
-3.4658 6.3685 0.826798
-3.4658 6.16224 0.826798
-3.4658 5.95597 0.826798
-3.48704 5.74821 0.830859
-3.50825 5.54082 0.834914
-3.50825 5.33492 0.834914
-3.52941 5.12808 0.838959
-3.55054 4.9216 0.843
-3.55054 4.71607 0.843
-3.55054 4.51053 0.843
-3.59268 4.30458 0.851055
-3.59268 4.09941 0.851055
-3.59268 3.89424 0.851055
-3.59268 3.68907 0.851055
-3.59268 3.4839 0.851055
-3.59268 3.27873 0.851055
-3.61369 3.07444 0.855072
-3.63467 2.87051 0.859084
-3.61369 2.66446 0.855072
-3.67651 2.46374 0.867087
-3.63467 2.25609 0.859084
-3.63467 2.05128 0.859084
-3.63467 1.84647 0.859084
-3.61369 1.63952 0.855072
-3.59268 1.43219 0.851055
-3.59268 1.22702 0.851055
-3.59268 1.02185 0.851055
-3.59268 0.816682 0.851055
-3.59268 0.611511 0.851055
-3.61369 0.409582 0.855072
-3.61369 0.204593 0.855072
-3.41195 7.62191 0.540351
-3.39023 7.41772 0.537945
-3.39023 7.21034 0.537945
-3.39023 7.00297 0.537945
-3.41195 6.79316 0.540351
-3.41195 6.58597 0.540351
-3.43364 6.37672 0.542755
-3.43364 6.16971 0.542755
-3.43364 5.96271 0.542755
-3.43364 5.75571 0.542755
-3.47689 5.54606 0.54755
-3.47689 5.33943 0.54755
-3.47689 5.1328 0.54755
-3.47689 4.92616 0.54755
-3.51999 4.71837 0.552325
-3.51999 4.5121 0.552325
-3.51999 4.30584 0.552325
-3.51999 4.09957 0.552325
-3.51999 3.8933 0.552325
-3.54148 3.68738 0.554708
-3.56294 3.48182 0.557086
-3.56294 3.27592 0.557086
-3.60573 3.07179 0.56183
-3.64838 2.86839 0.566553
-3.56294 2.65822 0.557086
-3.58435 2.45375 0.559458
-3.58435 2.24804 0.559458
-3.60573 2.04412 0.56183
-3.58435 1.8366 0.559458
-3.58435 1.63089 0.559458
-3.56294 1.42282 0.557086
-3.56294 1.21692 0.557086
-3.56294 1.01102 0.557086
-3.56294 0.805117 0.557086
-3.56294 0.599217 0.557086
-3.56294 0.393317 0.557086
-3.33421 7.63787 0.267496
-3.33421 7.42975 0.267496
-3.33421 7.22163 0.267496
-3.35621 7.01087 0.268199
-3.37817 6.80048 0.268897
-3.35621 6.595 0.268199
-3.35621 6.38707 0.268199
-3.37817 6.17724 0.268897
-3.37817 5.9695 0.268897
-3.37817 5.76175 0.268897
-3.37817 5.55401 0.268897
-3.42198 5.34398 0.270292
-3.42198 5.1366 0.270292
-3.42198 4.92923 0.270292
-3.44383 4.72127 0.270987
-3.46564 4.51368 0.271682
-3.46564 4.30668 0.271682
-3.46564 4.09968 0.271682
-3.46564 3.89267 0.271682
-3.46564 3.68567 0.271682
-3.55247 3.48077 0.274447
-3.50913 3.27309 0.273068
-3.55247 3.06824 0.274447
-3.50913 2.85982 0.273068
-3.50913 2.65318 0.273068
-3.50913 2.44655 0.273068
-3.50913 2.23991 0.273068
-3.50913 2.03328 0.273068
-3.50913 1.82664 0.273068
-3.50913 1.62001 0.273068
-3.50913 1.41337 0.273068
-3.50913 1.20674 0.273068
-3.50913 1.00011 0.273068
-3.4874 0.790546 0.272374
-3.4874 0.583727 0.272374
-3.50913 0.380202 0.273068
-3.25656 7.65073 0.00920311
-3.27871 7.43882 0.00816818
-3.30082 7.2273 0.00713408
-3.30082 7.01881 0.00713408
-3.30082 6.81031 0.00713408
-3.30082 6.60182 0.00713408
-3.30082 6.39332 0.00713408
-3.30082 6.18483 0.00713408
-3.34492 5.97291 0.00507297
-3.30082 5.76784 0.00713408
-3.30082 5.55935 0.00713408
-3.34492 5.34855 0.00507297
-3.34492 5.14043 0.00507297
-3.34492 4.93231 0.00507297
-3.34492 4.72419 0.00507297
-3.36691 4.51567 0.00404671
-3.38886 4.30753 0.00301951
-3.38886 4.09978 0.00301951
-3.43264 3.89235 0.00097322
-3.43264 3.68498 0.00097322
-3.41077 3.47708 0.00199489
-3.45447 3.27095 -4.84558e-05
-3.51974 3.06645 -0.00309724
-3.43264 2.85548 0.00097322
-3.41077 2.64684 0.00199489
-3.43264 2.44073 0.00097322
-3.43264 2.23336 0.00097322
-3.43264 2.02599 0.00097322
-3.43264 1.81861 0.00097322
-3.43264 1.61124 0.00097322
-3.47627 1.40863 -0.00106654
-3.43264 1.19649 0.00097322
-3.41077 0.986355 0.00199489
-3.38886 0.775844 0.00301951
-3.41077 0.571234 0.00199489
-3.41077 0.363674 0.00199489
-3.15884 7.66369 -0.235203
-3.181 7.451 -0.237991
-3.15884 7.24444 -0.235203
-3.181 7.03213 -0.237991
-3.20312 6.82021 -0.240776
-3.20312 6.61096 -0.240776
-3.20312 6.40172 -0.240776
-3.20312 6.19247 -0.240776
-3.2912 5.97634 -0.251867
-3.2252 5.77244 -0.243556
-3.20312 5.56473 -0.240776
-3.24724 5.35316 -0.246332
-3.2912 5.14236 -0.251867
-3.26924 4.93464 -0.249101
-3.24724 4.72655 -0.246332
-3.26924 4.51728 -0.249101
-3.31312 4.30817 -0.254625
-3.35684 4.09981 -0.26013
-3.2912 3.8914 -0.251867
-3.2912 3.6829 -0.251867
-3.35684 3.47601 -0.26013
-3.335 3.26736 -0.257382
-3.335 3.05924 -0.257382
-3.37865 2.85331 -0.262877
-3.335 2.643 -0.257382
-3.335 2.43488 -0.257382
-3.335 2.22676 -0.257382
-3.37865 2.02232 -0.262877
-3.335 1.81052 -0.257382
-3.335 1.6024 -0.257382
-3.335 1.39428 -0.257382
-3.35684 1.18875 -0.26013
-3.335 0.978045 -0.257382
-3.31312 0.766958 -0.254625
-3.2912 0.555492 -0.251867
-3.31312 0.350346 -0.254625
-3.04277 7.67674 -0.464157
-3.08679 7.4602 -0.473253
-3.08679 7.25019 -0.473253
-3.08679 7.04019 -0.473253
-3.08679 6.83018 -0.473253
-3.08679 6.62018 -0.473253
-3.08679 6.41017 -0.473253
-3.10874 6.19824 -0.477789
-3.17436 5.98322 -0.491348
-3.13065 5.77706 -0.482318
-3.17436 5.56473 -0.491348
-3.2179 5.35316 -0.500348
-3.19615 5.14526 -0.495851
-3.17436 4.93699 -0.491348
-3.17436 4.72774 -0.491348
-3.26129 4.51688 -0.509315
-3.19615 4.30903 -0.495851
-3.17436 4.1 -0.491348
-3.17436 3.89075 -0.491348
-3.26129 3.6829 -0.509315
-3.26129 3.47441 -0.509315
-3.2179 3.26446 -0.500348
-3.2179 3.05559 -0.500348
-3.19615 2.84562 -0.495851
-3.2179 2.63785 -0.500348
-3.2179 2.42898 -0.500348
-3.2179 2.22011 -0.500348
-3.2179 2.01124 -0.500348
-3.2179 1.80237 -0.500348
-3.26129 1.59796 -0.509315
-3.2179 1.38464 -0.500348
-3.30453 1.18616 -0.51825
-3.26129 0.97248 -0.509315
-3.2179 0.758026 -0.500348
-3.2179 0.549156 -0.500348
-3.2179 0.340286 -0.500348
-2.93192 7.68659 -0.682589
-2.95364 7.47253 -0.688888
-2.95364 7.26176 -0.688888
-2.95364 7.05099 -0.688888
-2.95364 6.84022 -0.688888
-2.97533 6.62713 -0.695178
-2.97533 6.41655 -0.695178
-2.99697 6.20403 -0.701459
-3.08316 5.98668 -0.72646
-3.08316 5.77706 -0.72646
-3.08316 5.56743 -0.72646
-3.19002 5.35201 -0.757457
-3.14739 5.14526 -0.74509
-3.14739 4.9362 -0.74509
-3.21128 4.72537 -0.763624
-3.14739 4.51809 -0.74509
-3.16873 1.59351 -0.75128
-3.16873 1.38464 -0.75128
-3.21128 1.18097 -0.763624
-3.10461 0.330172 -0.73268
-2.8056 7.6965 -0.886473
-2.82688 7.48184 -0.894502
-2.82688 7.2705 -0.894502
-2.82688 7.05915 -0.894502
-2.82688 6.84781 -0.894502
-2.84812 6.63412 -0.902519
-2.70678 7.69981 -1.09417
-2.76853 7.47874 -1.1232
-2.76853 7.26758 -1.1232
-2.76853 7.05643 -1.1232
-2.80951 6.84022 -1.14246
-2.8707 6.62249 -1.17122
-2.55299 7.70979 -1.26921
-2.57289 7.49434 -1.28055
-2.59276 7.27928 -1.29187
-2.55299 7.07285 -1.26921
-2.55299 6.86053 -1.26921
-2.75041 6.62481 -1.38171
-2.65215 4.52299 -1.32571
-2.67187 4.31143 -1.33695
-2.67187 4.10027 -1.33695
-2.65215 3.88895 -1.32571
-2.65215 3.67761 -1.32571
-2.71122 3.46791 -1.35937
-2.67187 3.25565 -1.33695
-2.63239 3.04263 -1.31445
-2.63239 2.83109 -1.31445
-2.80894 2.63137 -1.41506
-2.78947 2.42006 -1.40396
-2.78947 2.21005 -1.40396
-2.78947 2.00005 -1.40396
-2.75041 1.7859 -1.38171
-2.67187 1.56642 -1.33695
-2.36937 7.72318 -1.41388
-2.44554 7.49748 -1.4656
-2.48341 7.27928 -1.49131
-2.48341 7.06735 -1.49131
-2.40752 6.86566 -1.43979
-2.53996 6.63646 -1.52971
-4.40373 6.01989 -2.79518
-2.83641 4.93309 -1.731
-2.78148 4.72655 -1.6937
-2.65214 4.52053 -1.60588
-2.63353 4.31055 -1.59324
-2.5962 4.10022 -1.5679
-2.55874 3.88912 -1.54246
-2.57749 3.67832 -1.55519
-2.57749 3.46736 -1.55519
-2.52114 3.25417 -1.51693
-2.52114 3.04263 -1.51693
-2.55874 2.83335 -1.54246
-2.48341 2.6169 -1.49131
-2.65214 2.41856 -1.60588
-2.65214 2.20837 -1.60588
-2.65214 1.99817 -1.60588
-2.74469 1.79828 -1.66872
-2.74469 1.58903 -1.66872
-2.81814 1.38947 -1.71859
-2.92732 1.19649 -1.79272
-4.64931 1.06176 -2.96193
-2.215 7.72992 -1.5665
-2.26915 7.50693 -1.60985
-2.32301 7.28516 -1.65295
-2.32301 7.07285 -1.65295
-2.32301 6.86053 -1.65295
-2.39435 6.6388 -1.71007
-3.97798 6.23548 -2.97769
-4.22936 6.01344 -3.17891
-4.43113 5.8018 -3.34042
-4.57244 5.59989 -3.45355
-4.71149 5.40122 -3.56484
-4.84831 5.20573 -3.67437
-4.95621 5.01483 -3.76073
-5.00965 4.82872 -3.80351
-5.03624 4.6447 -3.8248
-5.08918 4.46064 -3.86716
-5.14178 4.27773 -3.90927
-5.19404 4.09596 -3.95112
-5.22006 3.91509 -3.97193
-5.19404 3.73374 -3.95112
-5.22006 3.55343 -3.97193
-5.25893 3.37423 -4.00304
-5.20706 3.19108 -3.96154
-5.12866 3.00512 -3.89877
-5.11551 2.82232 -3.88825
-5.08918 2.6381 -3.86716
-5.06275 2.4533 -3.84601
-5.03624 2.26792 -3.8248
-5.00965 2.08196 -3.80351
-4.9696 1.89368 -3.77146
-4.92936 1.7045 -3.73925
-4.84831 1.50831 -3.67437
-4.86188 1.32563 -3.68522
-4.67001 1.10784 -3.53164
-4.48793 0.887675 -3.3859
-4.28748 0.659988 -3.22544
-4.02285 0.414794 -3.01362
-2.0344 7.74006 -1.68773
-2.08527 7.51643 -1.73545
-2.11902 7.29699 -1.76713
-2.15265 7.07836 -1.79868
-2.16942 6.86309 -1.81442
-2.18616 6.64822 -1.83012
-3.60504 6.25196 -3.16142
-3.93962 6.01666 -3.47535
-4.12872 5.80463 -3.65277
-4.26116 5.60237 -3.77704
-4.36557 5.40552 -3.875
-4.45583 5.21211 -3.95969
-4.54508 5.02086 -4.04343
-4.59563 4.83355 -4.09087
-4.63334 4.64789 -4.12624
-4.67087 4.46311 -4.16145
-4.72063 4.27904 -4.20814
-4.75774 4.09615 -4.24297
-4.78238 3.914 -4.26609
-4.79468 3.73215 -4.27762
-4.81921 3.551 -4.30064
-4.83144 3.36987 -4.31212
-4.81921 3.18764 -4.30064
-4.83144 3.00679 -4.31212
-4.81921 2.82427 -4.30064
-4.78238 2.63922 -4.26609
-4.74539 2.4533 -4.23137
-4.72063 2.26792 -4.20814
-4.67087 2.07881 -4.16145
-4.64587 1.89195 -4.138
-4.59563 1.70074 -4.09087
-4.54508 1.50831 -4.04343
-4.46864 1.31022 -3.97171
-4.33959 1.10066 -3.85063
-4.20844 0.887675 -3.72757
-4.02119 0.659988 -3.55189
-3.82958 0.426986 -3.3721
-1.88 7.74345 -1.82489
-1.94267 7.51643 -1.89371
-1.97384 7.29699 -1.92793
-2.00489 7.07836 -1.96203
-2.02037 6.86309 -1.97903
-2.02037 6.65058 -1.97903
-3.10585 6.28566 -3.17095
-3.60417 6.02314 -3.71814
-3.71762 5.81751 -3.84271
-3.8294 5.61492 -3.96544
-3.93954 5.41529 -4.08639
-4.02409 5.22042 -4.17924
-4.08392 5.02928 -4.24492
-4.11957 4.84091 -4.28407
-4.17862 4.65251 -4.34891
-4.22552 4.46593 -4.40041
-4.2605 4.2807 -4.43883
-4.31843 4.09631 -4.50244
-4.34147 3.91301 -4.52774
-4.32996 3.72948 -4.5151
-4.35297 3.5469 -4.54036
-4.36445 3.36434 -4.55296
-4.35297 3.18066 -4.54036
-4.35297 2.99754 -4.54036
-4.36445 2.81542 -4.55296
-4.35297 2.63131 -4.54036
-4.32996 2.44562 -4.5151
-4.28373 2.25647 -4.46433
-4.2605 2.06931 -4.43883
-4.2372 1.88154 -4.41324
-4.19037 1.68938 -4.36182
-4.09582 1.4877 -4.25799
-4.01207 1.28567 -4.16604
-3.93954 1.08376 -4.08639
-3.87855 0.88248 -4.01942
-3.62953 0.637354 -3.74598
-3.39824 0.390165 -3.49201
-1.70232 7.75026 -1.9298
-1.75962 7.52279 -2.0036
-1.81649 7.29699 -2.07686
-1.81649 7.08389 -2.07686
-1.78811 6.87596 -2.04029
-1.90102 6.6435 -2.18574
-1.887 6.43374 -2.16768
-2.49365 6.13648 -2.94909
-2.6474 5.9133 -3.14714
-2.40246 5.7393 -2.83163
-2.17621 5.55667 -2.5402
-2.05361 5.35897 -2.38228
-2.0123 5.1521 -2.32907
-1.95686 4.94489 -2.25766
-1.95686 4.73373 -2.25766
-1.97076 4.52217 -2.27556
-1.95686 4.31143 -2.25766
-1.92899 4.10033 -2.22177
-1.87295 3.88812 -2.14958
-1.83064 3.67472 -2.09509
-1.78811 3.46014 -2.04029
-1.75962 3.24513 -2.0036
-1.77388 3.03221 -2.02196
-1.81649 2.82197 -2.07686
-1.81649 2.60888 -2.07686
-1.80231 2.39424 -2.05859
-1.81649 2.18268 -2.07686
-1.94294 1.98683 -2.23973
-1.98463 1.78175 -2.29343
-1.95686 1.56642 -2.25766
-1.99847 1.36267 -2.31127
-2.03986 1.16003 -2.36457
-2.10834 0.964096 -2.45278
-2.33662 0.805117 -2.74683
-2.41555 0.617626 -2.8485
-2.69795 0.482581 -3.21224
-1.51986 7.75709 -2.01816
-1.57137 7.52918 -2.09652
-1.55853 7.3179 -2.07698
-1.54566 7.10623 -2.05741
-1.55853 6.88895 -2.07698
-1.64794 6.6577 -2.21297
-1.64794 6.44461 -2.21297
-1.63524 6.2335 -2.19365
-2.06634 5.95933 -2.84935
-1.67328 5.80213 -2.25151
-1.62251 5.59503 -2.1743
-1.74873 5.36956 -2.36627
-1.73621 5.15902 -2.34722
-1.69852 4.9497 -2.2899
-1.71111 4.73677 -2.30904
-1.71111 4.52465 -2.30904
-1.69852 4.31275 -2.2899
-1.69852 4.10044 -2.2899
-1.64794 3.88745 -2.21297
-1.59699 3.6729 -2.13548
-1.58419 3.45845 -2.11602
-1.59699 3.24513 -2.13548
-1.58419 3.03029 -2.11602
-1.60976 2.81852 -2.15491
-1.62251 2.60618 -2.1743
-1.67328 2.39885 -2.25151
-1.63524 2.18095 -2.19365
-1.67328 1.97344 -2.25151
-1.71111 1.76708 -2.30904
-1.73621 1.55956 -2.34722
-1.78614 1.35774 -2.42317
-1.78614 1.14678 -2.42317
-1.83571 0.94719 -2.49857
-1.9702 0.769926 -2.70311
-1.94594 0.555492 -2.66622
-1.9216 0.340286 -2.6292
-1.3341 7.76395 -2.08988
-1.36816 7.5388 -2.15178
-1.37948 7.32091 -2.17234
-1.36816 7.10905 -2.15178
-1.37948 6.89156 -2.17234
-1.41329 6.66966 -2.23379
-1.42452 6.45337 -2.2542
-1.37948 6.24753 -2.17234
-1.41329 6.02742 -2.23379
-1.37948 5.81818 -2.17234
-1.36816 5.60493 -2.15178
-1.46923 5.37913 -2.33545
-1.45809 5.16704 -2.31519
-1.44692 4.95456 -2.2949
-1.46923 4.73984 -2.33545
-1.46923 4.52674 -2.33545
-1.45809 4.31387 -2.31519
-1.46923 4.10055 -2.33545
-1.42452 3.88678 -2.2542
-1.40204 3.67216 -2.21334
-1.40204 3.45788 -2.21334
-1.40204 3.2436 -2.21334
-1.40204 3.02933 -2.21334
-1.42452 2.81736 -2.2542
-1.44692 2.60618 -2.2949
-1.44692 2.3927 -2.2949
-1.45809 2.18095 -2.31519
-1.45809 1.96765 -2.31519
-1.49147 1.76074 -2.37585
-1.50255 1.55035 -2.396
-1.52467 1.34284 -2.43618
-1.55768 1.13877 -2.49617
-1.57959 0.93296 -2.53599
-1.64485 0.740014 -2.65457
-1.61231 0.520357 -2.59544
-1.5467 0.289161 -2.47621
-1.15627 7.76739 -2.16657
-1.18544 7.54202 -2.23107
-1.18544 7.32695 -2.23107
-1.18544 7.11187 -2.23107
-1.18544 6.8968 -2.23107
-1.21443 6.67447 -2.29522
-1.22406 6.45778 -2.31653
-1.19512 6.24955 -2.2525
-1.22406 6.02923 -2.31653
-1.18544 5.82143 -2.23107
