-1.84206 6.48998 4.89014
-1.85399 6.28877 4.90587
-1.85399 6.08966 4.90587
-1.85399 5.89055 4.90587
-1.85399 5.69144 4.90587
-1.85399 5.49232 4.90587
-1.85399 5.29321 4.90587
-1.85399 5.0941 4.90587
-1.85399 4.89499 4.90587
-1.85399 4.69588 4.90587
-1.85399 4.49677 4.90587
-1.85399 4.29766 4.90587
-1.85399 4.09854 4.90587
-1.85399 3.89943 4.90587
-1.85399 3.70032 4.90587
-1.85399 3.50121 4.90587
-1.85399 3.3021 4.90587
-1.85399 3.10299 4.90587
-1.85399 2.90388 4.90587
-1.85399 2.70476 4.90587
-1.85399 2.50565 4.90587
-1.85399 2.30654 4.90587
-1.84206 2.10572 4.89014
-1.85399 1.90832 4.90587
-1.84206 1.70715 4.89014
-1.85399 1.51009 4.90587
-1.85399 1.31098 4.90587
-1.83011 1.10673 4.87439
-1.83011 0.907268 4.87439
-1.83011 0.70781 4.87439
-1.85399 0.514537 4.90587
-1.85399 0.315426 4.90587
-2.20691 7.48938 4.71578
-2.20691 7.28992 4.71578
-2.20691 7.09046 4.71578
-2.20691 6.89101 4.71578
-2.20691 6.69155 4.71578
-2.22006 6.48998 4.73054
-2.23319 6.28877 4.74529
-2.23319 6.08966 4.74529
-2.23319 5.89055 4.74529
-2.23319 5.69144 4.74529
-2.23319 5.49232 4.74529
-2.23319 5.29321 4.74529
-2.23319 5.0941 4.74529
-2.22006 4.89571 4.73054
-2.23319 4.69588 4.74529
-2.23319 4.49677 4.74529
-2.23319 4.29766 4.74529
-2.23319 4.09854 4.74529
-2.23319 3.89943 4.74529
-2.23319 3.70032 4.74529
-2.23319 3.50121 4.74529
-2.23319 3.3021 4.74529
-2.23319 3.10299 4.74529
-2.23319 2.90388 4.74529
-2.23319 2.70476 4.74529
-2.23319 2.50565 4.74529
-2.2463 2.30807 4.76
-2.23319 2.10743 4.74529
-2.2463 1.91019 4.76
-2.23319 1.70921 4.74529
-2.23319 1.51009 4.74529
-2.22006 1.30859 4.73054
-2.23319 1.11187 4.74529
-2.22006 0.910016 4.73054
-2.20691 0.70781 4.71578
-2.22006 0.511447 4.73054
-2.23319 0.315426 4.74529
-2.5701 7.48938 4.52809
-2.5701 7.28992 4.52809
-2.5701 7.09046 4.52809
-2.5701 6.89101 4.52809
-2.5701 6.69155 4.52809
-2.5701 6.49209 4.52809
-2.5701 6.29263 4.52809
-2.58437 6.09142 4.54178
-2.5701 5.89372 4.52809
-2.59862 5.69144 4.55544
-2.5701 5.4948 4.52809
-2.59862 5.29321 4.55544
-2.58437 5.09499 4.54178
-2.58437 4.89571 4.54178
-2.59862 4.69588 4.55544
-2.59862 4.49677 4.55544
-2.59862 4.29766 4.55544
-2.58437 4.09857 4.54178
-2.59862 3.89943 4.55544
-2.59862 3.70032 4.55544
-2.59862 3.50121 4.55544
-2.59862 3.3021 4.55544
-2.59862 3.10299 4.55544
-2.58437 2.90286 4.54178
-2.59862 2.70476 4.55544
-2.59862 2.50565 4.55544
-2.59862 2.30654 4.55544
-2.5701 2.10402 4.52809
-2.5701 1.90456 4.52809
-2.5701 1.7051 4.52809
-2.58437 1.50787 4.54178
-2.5701 1.30618 4.52809
-2.59862 1.11187 4.55544
-2.59862 0.91276 4.55544
-2.59862 0.713649 4.55544
-2.58437 0.511447 4.54178
-2.5701 0.308894 4.52809
-2.90212 7.49236 4.29993
-2.88676 7.29553 4.28736
-2.90212 7.09309 4.29993
-2.88676 6.89592 4.28736
-2.91744 6.69155 4.31248
-2.90212 6.4942 4.29993
-2.91744 6.29263 4.31248
-2.91744 6.09317 4.31248
-2.91744 5.89372 4.31248
-2.91744 5.69426 4.31248
-2.91744 5.4948 4.31248
-2.91744 5.29534 4.31248
-2.91744 5.09588 4.31248
-2.90212 4.89715 4.29993
-2.91744 4.69697 4.31248
-2.91744 4.49751 4.31248
-2.91744 4.29805 4.31248
-2.91744 4.09859 4.31248
-2.91744 3.89914 4.31248
-2.91744 3.69968 4.31248
-2.91744 3.50022 4.31248
-2.91744 3.30076 4.31248
-2.91744 3.1013 4.31248
-2.91744 2.90185 4.31248
-2.94802 2.70476 4.33751
-2.97849 2.50836 4.36246
-2.97849 2.3096 4.36246
-2.91744 2.10402 4.31248
-2.91744 1.90456 4.31248
-2.91744 1.7051 4.31248
-2.91744 1.50564 4.31248
-2.91744 1.30618 4.31248
-2.91744 1.10673 4.31248
-2.91744 0.907268 4.31248
-2.91744 0.70781 4.31248
-2.91744 0.508352 4.31248
-2.91744 0.308894 4.31248
-3.21425 7.49534 4.04765
-3.19792 7.29835 4.0363
-3.19792 7.09837 4.0363
-3.18157 6.90086 4.02493
-3.21425 6.69612 4.04765
-3.21425 6.49631 4.04765
-3.21425 6.2965 4.04765
-3.21425 6.0967 4.04765
-3.21425 5.89689 4.04765
-3.21425 5.69709 4.04765
-3.21425 5.49728 4.04765
-3.21425 5.29748 4.04765
-3.21425 5.09767 4.04765
-3.21425 4.89787 4.04765
-3.21425 4.69806 4.04765
-3.21425 4.49826 4.04765
-3.21425 4.29845 4.04765
-3.21425 4.09864 4.04765
-3.21425 3.89884 4.04765
-3.21425 3.69903 4.04765
-3.21425 3.49923 4.04765
-3.21425 3.29942 4.04765
-3.21425 3.09962 4.04765
-3.21425 2.89981 4.04765
-3.21425 2.70001 4.04765
-3.21425 2.5002 4.04765
-3.21425 2.30039 4.04765
-3.21425 2.10059 4.04765
-3.21425 1.90078 4.04765
-3.23054 1.70304 4.05898
-3.26304 1.50787 4.08158
-3.21425 1.30137 4.04765
-3.21425 1.10156 4.04765
-3.21425 0.901756 4.04765
-3.21425 0.70195 4.04765
-3.21425 0.502145 4.04765
-3.21425 0.302339 4.04765
-3.48756 7.50132 3.7629
-3.45308 7.30682 3.74275
-3.45308 7.10631 3.74275
-3.45308 6.90581 3.74275
-3.50475 6.69841 3.77295
-3.48756 6.50055 3.7629
-3.48756 6.30039 3.7629
-3.48756 6.10024 3.7629
-3.48756 5.90008 3.7629
-3.48756 5.69993 3.7629
-3.48756 5.49977 3.7629
-3.48756 5.29962 3.7629
-3.48756 5.09947 3.7629
-3.48756 4.89931 3.7629
-3.48756 4.69916 3.7629
-3.48756 4.499 3.7629
-3.48756 4.29885 3.7629
-3.48756 4.09869 3.7629
-3.48756 3.89854 3.7629
-3.48756 3.69839 3.7629
-3.48756 3.49823 3.7629
-3.48756 3.29808 3.7629
-3.48756 3.09792 3.7629
-3.48756 2.89777 3.7629
-3.48756 2.69761 3.7629
-3.48756 2.49746 3.7629
-3.48756 2.2973 3.7629
-3.48756 2.09715 3.7629
-3.48756 1.897 3.7629
-3.48756 1.69684 3.7629
-3.48756 1.49669 3.7629
-3.48756 1.29653 3.7629
-3.52191 1.10156 3.78298
-3.55615 0.907268 3.803
-3.52191 0.70195 3.78298
-3.50475 0.499033 3.77295
-3.52191 0.302339 3.78298
-3.70001 7.51334 3.44284
-3.70001 7.31249 3.44284
-3.70001 7.11163 3.44284
-3.70001 6.91078 3.44284
-3.70001 6.70992 3.44284
-3.70001 6.50906 3.44284
-3.71807 6.30625 3.45157
-3.71807 6.10557 3.45157
-3.73609 5.90328 3.46029
-3.73609 5.70278 3.46029
-3.70001 5.50478 3.44284
-3.73609 5.30177 3.46029
-3.73609 5.10127 3.46029
-3.70001 4.90222 3.44284
-3.73609 4.70026 3.46029
-3.73609 4.49975 3.46029
-3.73609 4.29925 3.46029
-3.73609 4.09874 3.46029
-3.73609 3.89824 3.46029
-3.73609 3.69774 3.46029
-3.73609 3.49723 3.46029
-3.73609 3.29673 3.46029
-3.73609 3.09622 3.46029
-3.73609 2.89572 3.46029
-3.73609 2.69521 3.46029
-3.73609 2.49471 3.46029
-3.73609 2.2942 3.46029
-3.73609 2.0937 3.46029
-3.73609 1.8932 3.46029
-3.73609 1.69269 3.46029
-3.73609 1.49219 3.46029
-3.73609 1.29168 3.46029
-3.73609 1.09118 3.46029
-3.73609 0.890673 3.46029
-3.73609 0.690169 3.46029
-3.75408 0.492793 3.46899
-3.77204 0.295761 3.47767
-3.90248 7.52241 3.11999
-3.90248 7.32103 3.11999
-3.92126 7.11697 3.12731
-3.88367 6.92076 3.11265
-3.88367 6.7192 3.11265
-3.90248 6.51549 3.11999
-3.92126 6.31214 3.12731
-3.92126 6.11093 3.12731
-3.92126 5.90972 3.12731
-3.92126 5.70851 3.12731
-3.92126 5.5073 3.12731
-3.92126 5.30609 3.12731
-3.92126 5.10489 3.12731
-3.92126 4.90368 3.12731
-3.92126 4.70247 3.12731
-3.92126 4.50126 3.12731
-3.95873 4.29965 3.14193
-3.92126 4.09885 3.12731
-3.92126 3.89764 3.12731
-3.92126 3.69643 3.12731
-3.94001 3.49572 3.13463
-3.95873 3.29537 3.14193
-3.95873 3.09452 3.14193
-3.95873 2.89366 3.14193
-3.95873 2.6928 3.14193
-3.92126 2.48918 3.12731
-3.94001 2.28953 3.13463
-3.95873 2.09024 3.14193
-3.95873 1.88938 3.14193
-3.94001 1.68644 3.13463
-3.95873 1.48767 3.14193
-3.95873 1.28681 3.14193
-3.95873 1.08596 3.14193
-3.94001 0.882311 3.13463
-3.95873 0.684248 3.14193
-3.95873 0.483392 3.14193
-3.95873 0.282536 3.14193
-4.03824 7.53764 2.77488
-4.05771 7.33249 2.78076
-4.07714 7.1277 2.78663
-4.03824 6.93082 2.77488
-4.03824 6.72855 2.77488
-4.07714 6.52195 2.78663
-4.07714 6.32003 2.78663
-4.07714 6.11812 2.78663
-4.07714 5.9162 2.78663
-4.07714 5.71428 2.78663
-4.07714 5.51237 2.78663
-4.07714 5.31045 2.78663
-4.07714 5.10853 2.78663
-4.07714 4.90661 2.78663
-4.09654 4.70414 2.79249
-4.09654 4.5024 2.79249
-4.07714 4.30086 2.78663
-4.11591 4.0989 2.79834
-4.11591 3.89733 2.79834
-4.09654 3.69544 2.79249
-4.11591 3.49421 2.79834
-4.11591 3.29265 2.79834
-4.11591 3.09109 2.79834
-4.11591 2.88952 2.79834
-4.11591 2.68796 2.79834
-4.11591 2.4864 2.79834
-4.11591 2.28484 2.79834
-4.11591 2.08328 2.79834
-4.11591 1.88171 2.79834
-4.09654 1.67805 2.79249
-4.11591 1.47859 2.79834
-4.11591 1.27703 2.79834
-4.11591 1.07547 2.79834
-4.11591 0.873904 2.79834
-4.13524 0.675327 2.80418
-4.11591 0.47078 2.79834
-4.11591 0.269218 2.79834
-4.20366 7.54377 2.44079
-4.16367 7.34693 2.43207
-4.16367 7.14394 2.43207
-4.18368 6.93841 2.43644
-4.20366 6.73325 2.44079
-4.20366 6.53062 2.44079
-4.20366 6.32799 2.44079
-4.20366 6.12536 2.44079
-4.20366 5.92273 2.44079
-4.20366 5.72009 2.44079
-4.24351 5.51491 2.44949
-4.20366 5.31483 2.44079
-4.2236 5.11128 2.44515
-4.2236 4.90883 2.44515
-4.24351 4.70582 2.44949
-4.24351 4.50354 2.44949
-4.24351 4.30127 2.44949
-4.24351 4.099 2.44949
-4.24351 3.89672 2.44949
-4.24351 3.69445 2.44949
-4.24351 3.49218 2.44949
-4.24351 3.28991 2.44949
-4.24351 3.08763 2.44949
-4.28321 2.88744 2.45815
-4.28321 2.68553 2.45815
-4.28321 2.48361 2.45815
-4.28321 2.28169 2.45815
-4.28321 2.07978 2.45815
-4.28321 1.87786 2.45815
-4.28321 1.67594 2.45815
-4.28321 1.47403 2.45815
-4.28321 1.27211 2.45815
-4.28321 1.07019 2.45815
-4.28321 0.868275 2.45815
-4.28321 0.666358 2.45815
-4.28321 0.464442 2.45815
-4.28321 0.262524 2.45815
-4.26012 7.56229 2.08671
-4.26012 7.35858 2.08671
-4.26012 7.15487 2.08671
-4.30096 6.94605 2.09231
-4.28056 6.74507 2.08952
-4.28056 6.54154 2.08952
-4.30096 6.336 2.09231
-4.30096 6.13265 2.09231
-4.30096 5.9293 2.09231
-4.30096 5.72595 2.09231
-4.30096 5.5226 2.09231
-4.30096 5.31925 2.09231
-4.30096 5.1159 2.09231
-4.30096 4.91255 2.09231
-4.30096 4.7092 2.09231
-4.34165 4.50508 2.09789
-4.34165 4.30209 2.09789
-4.34165 4.0991 2.09789
-4.34165 3.89611 2.09789
-4.34165 3.69312 2.09789
-4.34165 3.49013 2.09789
-4.34165 3.28714 2.09789
-4.34165 3.08415 2.09789
-4.3822 2.88326 2.10346
-4.3822 2.68063 2.10346
-4.34165 2.47518 2.09789
-4.3822 2.27537 2.10346
-4.36195 2.07098 2.10068
-4.34165 1.86622 2.09789
-4.34165 1.66323 2.09789
-4.34165 1.46024 2.09789
-4.36195 1.25974 2.10068
-4.34165 1.05426 2.09789
-4.36195 0.854115 2.10068
-4.3822 0.654327 2.10346
-4.3822 0.451696 2.10346
-4.3822 0.249065 2.10346
-4.32797 7.57474 1.74125
-4.32797 7.37031 1.74125
-4.32797 7.16587 1.74125
-4.32797 6.96143 1.74125
-4.32797 6.75699 1.74125
-4.32797 6.55256 1.74125
-4.36941 6.34406 1.74365
-4.36941 6.13999 1.74365
-4.36941 5.93592 1.74365
-4.36941 5.73184 1.74365
-4.36941 5.52777 1.74365
-4.36941 5.3237 1.74365
-4.36941 5.11962 1.74365
-4.36941 4.91555 1.74365
-4.36941 4.71148 1.74365
-4.39008 4.50701 1.74484
-4.41071 4.30292 1.74604
-4.41071 4.0992 1.74604
-4.41071 3.89549 1.74604
-4.41071 3.69178 1.74604
-4.41071 3.48807 1.74604
-4.41071 3.28436 1.74604
-4.41071 3.08065 1.74604
-4.45186 2.87906 1.74841
-4.41071 2.67323 1.74604
-4.41071 2.46952 1.74604
-4.41071 2.26581 1.74604
-4.41071 2.0621 1.74604
-4.41071 1.85838 1.74604
-4.41071 1.65467 1.74604
-4.45186 1.45561 1.74841
-4.43131 1.24976 1.74723
-4.41071 1.04354 1.74604
-4.43131 0.842697 1.74723
-4.45186 0.64221 1.74841
-4.45186 0.43886 1.74841
-4.45186 0.235511 1.74841
-4.32584 7.59359 1.39892
-4.34683 7.38509 1.39848
-4.34683 7.17973 1.39848
-4.36779 6.97178 1.39805
-4.36779 6.76661 1.39805
-4.36779 6.56144 1.39805
-4.36779 6.35627 1.39805
-4.38871 6.14924 1.39762
-4.40959 5.94258 1.39718
-4.36779 5.74077 1.39805
-4.38871 5.53429 1.39762
-4.40959 5.32818 1.39718
-4.40959 5.12337 1.39718
-4.40959 4.91857 1.39718
-4.40959 4.71377 1.39718
-4.40959 4.50897 1.39718
-4.43044 4.30395 1.39675
-4.43044 4.09933 1.39675
-4.43044 3.89471 1.39675
-4.45124 3.69043 1.39632
-4.45124 3.486 1.39632
-4.45124 3.28156 1.39632
-4.45124 3.07712 1.39632
-4.47202 2.87375 1.39588
-4.45124 2.66825 1.39632
-4.45124 2.46381 1.39632
-4.45124 2.25937 1.39632
-4.45124 2.05493 1.39632
-4.45124 1.8505 1.39632
-4.45124 1.64606 1.39632
-4.45124 1.44162 1.39632
-4.45124 1.23718 1.39632
-4.47202 1.03545 1.39588
-4.47202 0.831198 1.39588
-4.49275 0.630007 1.39545
-4.49275 0.425933 1.39545
-4.49275 0.22186 1.39545
-4.3383 7.60627 1.06358
-4.3383 7.4 1.06358
-4.3383 7.19372 1.06358
-4.38035 6.9822 1.05938
-4.38035 6.7763 1.05938
-4.38035 6.57039 1.05938
-4.35934 6.36655 1.06148
-4.38035 6.15858 1.05938
-4.38035 5.95267 1.05938
-4.38035 5.74677 1.05938
-4.38035 5.54086 1.05938
-4.42226 5.33269 1.05521
-4.42226 5.12715 1.05521
-4.42226 4.92161 1.05521
-4.40133 4.71666 1.0573
-4.42226 4.51054 1.05521
-4.44316 4.30479 1.05313
-4.42226 4.09947 1.05521
-4.44316 3.89409 1.05313
-4.46401 3.68907 1.05105
-4.46401 3.48391 1.05105
-4.46401 3.27874 1.05105
-4.46401 3.07357 1.05105
-4.46401 2.8684 1.05105
-4.46401 2.66323 1.05105
-4.46401 2.45806 1.05105
-4.46401 2.25289 1.05105
-4.46401 2.04772 1.05105
-4.46401 1.84255 1.05105
-4.46401 1.63738 1.05105
-4.46401 1.43221 1.05105
-4.46401 1.22705 1.05105
-4.46401 1.02188 1.05105
-4.48483 0.819616 1.04897
-4.48483 0.61463 1.04897
-4.50562 0.412914 1.0469
-4.50562 0.208111 1.0469
-4.32473 7.61904 0.734954
-4.32473 7.41202 0.734954
-4.32473 7.205 0.734954
-4.32473 6.99798 0.734954
-4.32473 6.79096 0.734954
-4.32473 6.58394 0.734954
-4.32473 6.37692 0.734954
-4.36663 6.16611 0.727423
-4.36663 5.95946 0.727423
-4.36663 5.75281 0.727423
-4.36663 5.54616 0.727423
-4.36663 5.33952 0.727423
-4.36663 5.13287 0.727423
-4.36663 4.92622 0.727423
-4.36663 4.71957 0.727423
-4.38752 4.51252 0.723667
-4.40837 4.30585 0.719918
-4.40837 4.09957 0.719918
-4.40837 3.8933 0.719918
-4.40837 3.68702 0.719918
-4.40837 3.48074 0.719918
-4.40837 3.27447 0.719918
-4.42919 3.06909 0.716176
-4.44997 2.86408 0.712439
-4.42919 2.65691 0.716176
-4.42919 2.45082 0.716176
-4.44997 2.24636 0.712439
-4.42919 2.03863 0.716176
-4.44997 1.83455 0.712439
-4.44997 1.62865 0.712439
-4.44997 1.42274 0.712439
-4.44997 1.21683 0.712439
-4.44997 1.01093 0.712439
-4.44997 0.805021 0.712439
-4.44997 0.599115 0.712439
-4.44997 0.393209 0.712439
-4.24463 7.63838 0.425998
-4.24463 7.43023 0.425998
-4.24463 7.22208 0.425998
-4.28626 7.00859 0.415084
-4.26546 6.8033 0.420536
-4.28626 6.59305 0.415084
-4.28626 6.38528 0.415084
-4.28626 6.17751 0.415084
-4.28626 5.96973 0.415084
-4.28626 5.76196 0.415084
-4.28626 5.55419 0.415084
-4.28626 5.34642 0.415084
-4.30701 5.13768 0.409643
-4.32773 4.92932 0.404209
-4.32773 4.72192 0.404209
-4.32773 4.51452 0.404209
-4.32773 4.30713 0.404209
-4.34842 4.09971 0.398788
-4.36906 3.89266 0.393376
-4.34842 3.68529 0.398788
-4.36906 3.47861 0.393376
-4.36906 3.27159 0.393376
-4.36906 3.06457 0.393376
-4.41024 2.85973 0.382579
-4.36906 2.65053 0.393376
-4.36906 2.44351 0.393376
-4.36906 2.23648 0.393376
-4.36906 2.02946 0.393376
-4.36906 1.82244 0.393376
-4.36906 1.61542 0.393376
-4.38967 1.4108 0.387972
-4.36906 1.20138 0.393376
-4.38967 0.99713 0.387972
-4.38967 0.790295 0.387972
-4.36906 0.580312 0.393376
-4.41024 0.379954 0.382579
-4.18324 7.65138 0.120101
-4.18324 7.44247 0.120101
-4.18324 7.23356 0.120101
-4.18324 7.02466 0.120101
-4.18324 6.81575 0.120101
-4.18324 6.60684 0.120101
-4.22418 6.3937 0.105852
-4.22418 6.18517 0.105852
-4.22418 5.97664 0.105852
-4.22418 5.76812 0.105852
-4.22418 5.55959 0.105852
-4.22418 5.35106 0.105852
-4.22418 5.14253 0.105852
-4.22418 4.93401 0.105852
-4.22418 4.72548 0.105852
-4.26497 4.51614 0.0916551
-4.24459 4.30821 0.0987471
-4.26497 4.09984 0.0916551
-4.26497 3.89169 0.0916551
-4.26497 3.68354 0.0916551
-4.26497 3.47539 0.0916551
-4.30561 3.2687 0.0775085
-4.28531 3.06001 0.0845754
-4.30561 2.85315 0.0775085
-4.30561 2.64538 0.0775085
-4.30561 2.43761 0.0775085
-4.30561 2.22984 0.0775085
-4.28531 2.02021 0.0845754
-4.30561 1.8143 0.0775085
-4.30561 1.60652 0.0775085
-4.30561 1.39875 0.0775085
-4.30561 1.19098 0.0775085
-4.30561 0.983207 0.0775085
-4.30561 0.775435 0.0775085
-4.30561 0.567664 0.0775085
-4.30561 0.359892 0.0775085
-4.05981 7.67107 -0.155847
-4.09994 7.45481 -0.173456
-4.09994 7.24514 -0.173456
-4.07989 7.03818 -0.164659
-4.09994 6.82579 -0.173456
-4.09994 6.61612 -0.173456
-4.09994 6.40645 -0.173456
-4.09994 6.19678 -0.173456
-4.11995 5.98535 -0.182237
-4.11995 5.77587 -0.182237
-4.11995 5.56639 -0.182237
-4.13993 5.35574 -0.191001
-4.11995 5.14743 -0.182237
-4.13993 4.93716 -0.191001
-4.13993 4.72787 -0.191001
-4.13993 4.51858 -0.191001
-4.17977 4.30886 -0.208482
-4.15987 4.09998 -0.199749
-4.17977 3.89104 -0.208482
-4.17977 3.68213 -0.208482
-4.17977 3.47323 -0.208482
-4.17977 3.26432 -0.208482
-4.17977 3.05541 -0.208482
-4.19963 2.84762 -0.217198
-4.21946 2.6402 -0.225899
-4.17977 2.42869 -0.208482
-4.17977 2.21978 -0.208482
-4.19963 2.01275 -0.217198
-4.21946 1.80609 -0.225899
-4.21946 1.59756 -0.225899
-4.19963 1.38659 -0.217198
-4.19963 1.17788 -0.217198
-4.21946 0.971979 -0.225899
-4.21946 0.763451 -0.225899
-4.21946 0.554923 -0.225899
-4.21946 0.346395 -0.225899
-3.91833 7.69097 -0.411327
-3.95739 7.47348 -0.432258
-3.95739 7.26265 -0.432258
-3.95739 7.05183 -0.432258
-3.95739 6.841 -0.432258
-3.95739 6.63017 -0.432258
-3.97686 6.41718 -0.442697
-3.9963 6.20459 -0.453116
-3.9963 5.99414 -0.453116
-3.9963 5.7837 -0.453116
-3.9963 5.57326 -0.453116
-3.9963 5.36282 -0.453116
-4.0157 5.15138 -0.463515
-4.0157 4.94114 -0.463515
-4.03507 4.73028 -0.473895
-4.03507 4.52023 -0.473895
-4.03507 4.31017 -0.473895
-4.03507 4.10011 -0.473895
-4.0544 3.89022 -0.484256
-4.03507 3.68 -0.473895
-4.03507 3.46995 -0.473895
-4.07369 3.26137 -0.494599
-4.07369 3.0517 -0.494599
-4.07369 2.84203 -0.494599
-4.07369 2.63236 -0.494599
-4.07369 2.42268 -0.494599
-4.07369 2.21301 -0.494599
-4.07369 2.00334 -0.494599
-4.07369 1.79367 -0.494599
-4.07369 1.584 -0.494599
-4.07369 1.37432 -0.494599
-4.07369 1.16465 -0.494599
-4.09296 0.957827 -0.504923
-4.07369 0.745309 -0.494599
-4.07369 0.535637 -0.494599
-4.11218 0.3328 -0.515227
-3.81779 7.701 -0.681422
-3.81779 7.4892 -0.681422
-3.81779 7.2774 -0.681422
-3.83655 7.06283 -0.693466
-3.83655 6.85123 -0.693466
-3.83655 6.63962 -0.693466
-3.83655 6.42801 -0.693466
-3.83655 6.2164 -0.693466
-3.87398 6.00123 -0.717488
-3.87398 5.79002 -0.717488
-3.87398 5.5788 -0.717488
-3.87398 5.36758 -0.717488
-3.87398 5.15637 -0.717488
-3.87398 4.94515 -0.717488
-3.87398 4.73393 -0.717488
-3.89265 4.5223 -0.729465
-3.91127 4.31105 -0.741419
-3.91127 4.10022 -0.741419
-3.91127 3.8894 -0.741419
-3.91127 3.67857 -0.741419
-3.91127 3.46774 -0.741419
-3.91127 3.25691 -0.741419
-3.92987 3.04702 -0.753354
-3.94843 2.83752 -0.765266
-3.92987 2.62575 -0.753354
-3.94843 2.41664 -0.765266
-3.94843 2.20619 -0.765266
-3.94843 1.99575 -0.765266
-3.94843 1.78531 -0.765266
-3.94843 1.57487 -0.765266
-3.94843 1.36443 -0.765266
-3.94843 1.15399 -0.765266
-3.94843 0.943545 -0.765266
-3.94843 0.733104 -0.765266
-3.94843 0.522662 -0.765266
-3.94843 0.31222 -0.765266
-3.66324 7.71785 -0.911092
-3.66324 7.50507 -0.911092
-3.66324 7.29228 -0.911092
-3.66324 7.0795 -0.911092
-3.68117 6.86412 -0.924697
-3.69907 6.64914 -0.938276
-3.69907 6.43675 -0.938276
-3.69907 6.22436 -0.938276
-3.69907 6.01197 -0.938276
-3.69907 5.79958 -0.938276
-3.69907 5.58718 -0.938276
-3.73476 5.37238 -0.965359
-3.73476 5.16038 -0.965359
-3.73476 4.94838 -0.965359
-3.73476 4.73639 -0.965359
-3.73476 4.52439 -0.965359
-3.73476 4.31239 -0.965359
-3.75255 4.10036 -0.978862
-3.77032 3.88873 -0.992341
-3.77032 3.67712 -0.992341
-3.77032 3.46552 -0.992341
-3.77032 3.25391 -0.992341
-3.77032 3.0423 -0.992341
-3.78805 2.83184 -1.0058
-3.77032 2.61909 -0.992341
-3.77032 2.40748 -0.992341
-3.77032 2.19587 -0.992341
-3.77032 1.98427 -0.992341
-3.78805 1.77478 -1.0058
-3.78805 1.56337 -1.0058
-3.80575 1.35446 -1.01923
-3.80575 1.14324 -1.01923
-3.80575 0.932024 -1.01923
-3.80575 0.720808 -1.01923
-3.80575 0.509591 -1.01923
-3.80575 0.298373 -1.01923
-3.47897 7.73828 -1.1053
-3.51293 7.51787 -1.13554
-3.51293 7.30429 -1.13554
-3.51293 7.09071 -1.13554
-3.51293 6.87713 -1.13554
-3.52986 6.66114 -1.15062
-3.54676 6.44555 -1.16568
-3.54676 6.23237 -1.16568
-3.54676 6.01919 -1.16568
-3.54676 5.80601 -1.16568
-3.54676 5.59283 -1.16568
-3.54676 5.37965 -1.16568
-3.54676 5.16647 -1.16568
-3.58047 4.95164 -1.1957
-3.58047 4.73886 -1.1957
-3.58047 4.52607 -1.1957
-3.58047 4.31329 -1.1957
-3.58047 4.1005 -1.1957
-3.58047 3.88772 -1.1957
-3.58047 3.67493 -1.1957
-3.59727 3.46271 -1.21067
-3.61405 3.25088 -1.22561
-3.61405 3.03849 -1.22561
-3.61405 2.8261 -1.22561
-3.61405 2.61371 -1.22561
-3.61405 2.40132 -1.22561
-3.61405 2.18893 -1.22561
-3.61405 1.97654 -1.22561
-3.61405 1.76415 -1.22561
-3.61405 1.55176 -1.22561
-3.61405 1.33937 -1.22561
-3.61405 1.12698 -1.22561
-3.61405 0.914585 -1.22561
-3.6475 0.708421 -1.25541
-3.6475 0.496423 -1.25541
-3.6475 0.284425 -1.25541
-3.31821 7.75202 -1.30884
-3.33408 7.534 -1.32539
-3.34993 7.31638 -1.34191
-3.34993 7.10201 -1.34191
-3.34993 6.88763 -1.34191
-3.34993 6.67325 -1.34191
-3.34993 6.45888 -1.34191
-3.36574 6.24247 -1.35839
-3.36574 6.02829 -1.35839
-3.36574 5.81412 -1.35839
-3.38153 5.59851 -1.37485
-3.38153 5.38453 -1.37485
-3.38153 5.17056 -1.37485
-3.38153 4.95658 -1.37485
-3.38153 4.74261 -1.37485
-3.39728 4.5282 -1.39127
-3.413 4.3142 -1.40766
-3.413 4.10062 -1.40766
-3.413 3.88704 -1.40766
-3.413 3.67346 -1.40766
-3.413 3.45988 -1.40766
-3.4287 3.24707 -1.42403
-3.44437 3.03466 -1.44036
-3.44437 2.82148 -1.44036
-3.44437 2.6083 -1.44036
-3.44437 2.39512 -1.44036
-3.44437 2.18193 -1.44036
-3.44437 1.96875 -1.44036
-3.44437 1.75557 -1.44036
-3.44437 1.54239 -1.44036
-3.44437 1.32921 -1.44036
-3.44437 1.11603 -1.44036
-3.44437 0.90285 -1.44036
-3.44437 0.689669 -1.44036
-3.44437 0.476489 -1.44036
-3.46001 0.266844 -1.45666
-3.14691 7.76587 -1.49385
-3.14691 7.55028 -1.49385
-3.14691 7.3347 -1.49385
-3.17616 7.11339 -1.52957
-3.17616 6.89821 -1.52957
-3.17616 6.68303 -1.52957
-3.17616 6.46784 -1.52957
-3.17616 6.25266 -1.52957
-3.17616 6.03748 -1.52957
-3.17616 5.8223 -1.52957
-3.19074 5.60568 -1.54738
-3.20529 5.38946 -1.56515
-3.20529 5.17468 -1.56515
-3.20529 4.9599 -1.56515
-3.20529 4.74513 -1.56515
-3.21982 4.52992 -1.58289
-3.23432 4.31511 -1.6006
-3.23432 4.10073 -1.6006
-3.23432 3.88636 -1.6006
-3.23432 3.67198 -1.6006
-3.23432 3.4576 -1.6006
-3.23432 3.24323 -1.6006
-3.24879 3.02982 -1.61828
-3.26323 2.81682 -1.63592
-3.26323 2.60284 -1.63592
-3.24879 2.38729 -1.61828
-3.26323 2.17489 -1.63592
-3.24879 1.95894 -1.61828
-3.26323 1.74693 -1.63592
-3.26323 1.53296 -1.63592
-3.26323 1.31898 -1.63592
-3.26323 1.105 -1.63592
-3.26323 0.891027 -1.63592
-3.26323 0.677051 -1.63592
-3.26323 0.463074 -1.63592
-3.26323 0.249098 -1.63592
-2.9803 7.77632 -1.67903
-2.96701 7.56342 -1.65992
-2.96701 7.34702 -1.65992
-2.9803 7.12774 -1.67903
-2.96701 6.91422 -1.65992
-2.96701 6.69782 -1.65992
-2.99356 6.47688 -1.69811
-2.99356 6.26089 -1.69811
-2.99356 6.04489 -1.69811
-2.99356 5.8289 -1.69811
-2.99356 5.61291 -1.69811
-3.02001 5.39442 -1.73615
-3.02001 5.17884 -1.73615
-3.02001 4.96325 -1.73615
-3.02001 4.74766 -1.73615
-3.02001 4.53208 -1.73615
-3.0332 4.31626 -1.75512
-3.04636 4.10085 -1.77405
-3.04636 3.88567 -1.77405
-3.04636 3.67049 -1.77405
-3.04636 3.4553 -1.77405
-3.04636 3.24012 -1.77405
-3.04636 3.02494 -1.77405
-3.07261 2.81212 -1.81181
-3.0595 2.59596 -1.79295
-3.07261 2.38256 -1.81181
-3.07261 2.16779 -1.81181
-3.07261 1.95301 -1.81181
-3.07261 1.73823 -1.81181
-3.0595 1.52106 -1.79295
-3.07261 1.30867 -1.81181
-3.07261 1.09389 -1.81181
-3.07261 0.879117 -1.81181
-3.07261 0.664338 -1.81181
-3.07261 0.44956 -1.81181
-3.07261 0.234782 -1.81181
-2.75668 7.80095 -1.76622
-2.78042 7.57666 -1.80683
-2.78042 7.35944 -1.80683
-2.78042 7.14222 -1.80683
-2.79225 6.9223 -1.82708
-2.79225 6.70528 -1.82708
-2.80407 6.48598 -1.84729
-2.80407 6.26917 -1.84729
-2.80407 6.05236 -1.84729
-2.80407 5.83556 -1.84729
-2.81586 5.61728 -1.86746
-2.82763 5.39942 -1.88759
-2.82763 5.18302 -1.88759
-2.82763 4.96662 -1.88759
-2.82763 4.75022 -1.88759
-2.82763 4.53382 -1.88759
-2.83937 4.31719 -1.90769
-2.8511 4.10096 -1.92775
-2.8511 3.88497 -1.92775
-2.8511 3.66898 -1.92775
-2.8511 3.45299 -1.92775
-2.8511 3.237 -1.92775
-2.8628 3.02199 -1.94777
-2.8628 2.8062 -1.94777
-2.87448 2.5918 -1.96775
-2.87448 2.37622 -1.96775
-2.87448 2.16063 -1.96775
-2.87448 1.94505 -1.96775
-2.87448 1.72946 -1.96775
-2.87448 1.51387 -1.96775
-2.87448 1.29829 -1.96775
-2.87448 1.0827 -1.96775
-2.87448 0.867115 -1.96775
-2.87448 0.651529 -1.96775
-2.87448 0.435943 -1.96775
-2.87448 0.220357 -1.96775
-2.55806 7.81874 -1.87049
-2.58904 7.59 -1.93455
-2.58904 7.37195 -1.93455
-2.58904 7.15391 -1.93455
-2.59933 6.93314 -1.95583
-2.59933 6.7153 -1.95583
-2.6096 6.49516 -1.97706
-2.6096 6.27752 -1.97706
-2.6096 6.05989 -1.97706
-2.6096 5.84226 -1.97706
-2.61985 5.62315 -1.99826
-2.61985 5.40573 -1.99826
-2.63008 5.18724 -2.01941
-2.63008 4.97002 -2.01941
-2.63008 4.7528 -2.01941
-2.64029 4.53514 -2.04053
-2.65048 4.31789 -2.0616
-2.65048 4.10108 -2.0616
-2.65048 3.88427 -2.0616
-2.65048 3.66746 -2.0616
-2.65048 3.45065 -2.0616
-2.66066 3.23464 -2.08263
-2.67081 3.01902 -2.10363
-2.67081 2.80262 -2.10363
-2.66066 2.58482 -2.08263
-2.66066 2.36822 -2.08263
-2.67081 2.15342 -2.10363
-2.66066 1.93501 -2.08263
-2.67081 1.72062 -2.10363
-2.67081 1.50422 -2.10363
-2.67081 1.28782 -2.10363
-2.67081 1.07142 -2.10363
-2.67081 0.855024 -2.10363
-2.67081 0.638624 -2.10363
-2.67081 0.422225 -2.10363
-2.67081 0.205824 -2.10363
-2.37741 7.8295 -1.99874
-2.39476 7.60344 -2.04324
-2.39476 7.38456 -2.04324
-2.40342 7.16273 -2.06542
-2.41205 6.94132 -2.08756
-2.41205 6.72286 -2.08756
-2.41205 6.5044 -2.08756
-2.41205 6.28594 -2.08756
-2.41205 6.06747 -2.08756
-2.42068 5.84732 -2.10966
-2.42928 5.62758 -2.13172
-2.42068 5.41081 -2.10966
-2.42068 5.19256 -2.10966
-2.42928 4.97344 -2.13172
-2.42928 4.7554 -2.13172
-2.42928 4.53735 -2.13172
-2.44644 4.31883 -2.17571
-2.44644 4.1012 -2.17571
-2.44644 3.88357 -2.17571
-2.44644 3.66594 -2.17571
-2.44644 3.4483 -2.17571
-2.46353 3.23226 -2.21954
-2.46353 3.01504 -2.21954
-2.46353 2.79782 -2.21954
-2.45499 2.57919 -2.19765
-2.46353 2.36338 -2.21954
-2.46353 2.14616 -2.21954
-2.46353 1.92894 -2.21954
-2.46353 1.71172 -2.21954
-2.46353 1.4945 -2.21954
-2.46353 1.27728 -2.21954
-2.46353 1.06006 -2.21954
-2.46353 0.842841 -2.21954
-2.46353 0.625621 -2.21954
-2.46353 0.408401 -2.21954
-2.19244 7.84031 -2.1102
-2.19939 7.61698 -2.13321
-2.21326 7.3909 -2.17911
-2.20633 7.17457 -2.15618
-2.21326 6.95231 -2.17911
-2.21326 6.73301 -2.17911
-2.21326 6.51371 -2.17911
-2.21326 6.29441 -2.17911
-2.22707 6.07129 -2.22483
-2.22707 5.85241 -2.22483
-2.22707 5.63353 -2.22483
-2.22707 5.41465 -2.22483
-2.22707 5.19577 -2.22483
-2.22707 4.97689 -2.22483
-2.23396 4.75736 -2.24762
-2.23396 4.53869 -2.24762
-2.24083 4.31978 -2.27038
-2.24083 4.10132 -2.27038
-2.24083 3.88286 -2.27038
-2.24083 3.6644 -2.27038
-2.24083 3.44593 -2.27038
-2.24083 3.22747 -2.27038
-2.25454 3.01103 -2.31575
-2.25454 2.79298 -2.31575
-2.25454 2.57494 -2.31575
-2.25454 2.35689 -2.31575
-2.25454 2.13884 -2.31575
-2.25454 1.9208 -2.31575
-2.25454 1.70275 -2.31575
-2.25454 1.4847 -2.31575
-2.25454 1.26666 -2.31575
-2.25454 1.04861 -2.31575
-2.25454 0.830566 -2.31575
-2.26137 0.615804 -2.33837
-2.25454 0.394474 -2.31575
-1.99434 7.85848 -2.15758
-2.01498 7.62379 -2.25217
-2.01498 7.40365 -2.25217
-2.00984 7.18651 -2.22859
-2.01498 6.96338 -2.25217
-2.01498 6.74323 -2.25217
-2.02012 6.52074 -2.27571
-2.02012 6.30081 -2.27571
-2.02524 6.07896 -2.2992
-2.02524 5.85924 -2.2992
-2.02524 5.63952 -2.2992
-2.02524 5.41981 -2.2992
-2.02524 5.20009 -2.2992
-2.02524 4.98037 -2.2992
-2.03036 4.75999 -2.32264
-2.03547 4.54003 -2.34604
-2.03547 4.32074 -2.34604
-2.03547 4.10144 -2.34604
-2.03547 3.88214 -2.34604
-2.04056 3.66323 -2.36939
-2.04056 3.44414 -2.36939
-2.04565 3.22586 -2.3927
-2.04565 3.00698 -2.3927
-2.04565 2.78811 -2.3927
-2.04565 2.56923 -2.3927
-2.04565 2.35035 -2.3927
-2.04565 2.13147 -2.3927
-2.05072 1.91465 -2.41597
-2.04565 1.69371 -2.3927
-2.04565 1.47483 -2.3927
-2.05072 1.25864 -2.41597
-2.05072 1.03997 -2.41597
-2.05072 0.821298 -2.41597
-2.05072 0.602628 -2.41597
-2.05579 0.38747 -2.43919
-1.80233 7.87683 -2.18646
-1.81891 7.63749 -2.30741
-1.81891 7.41651 -2.30741
-1.81891 7.19552 -2.30741
-1.81891 6.97453 -2.30741
-1.82221 6.75096 -2.33146
-1.82221 6.53018 -2.33146
-1.8255 6.30725 -2.35546
-1.8255 6.08669 -2.35546
-1.8255 5.86613 -2.35546
-1.8255 5.64556 -2.35546
-1.82879 5.4237 -2.37941
-1.83207 5.20226 -2.40333
-1.83207 4.98212 -2.40333
-1.83207 4.76198 -2.40333
-1.83207 4.54184 -2.40333
-1.83534 4.32146 -2.42719
-1.83534 4.10153 -2.42719
-1.83861 3.88178 -2.45101
-1.83534 3.66167 -2.42719
-1.83861 3.44235 -2.45101
-1.83861 3.22263 -2.45101
-1.84512 3.00495 -2.49851
-1.84187 2.78442 -2.47478
-1.84187 2.56492 -2.47478
-1.84512 2.34706 -2.49851
-1.84187 2.1259 -2.47478
-1.84187 1.90639 -2.47478
-1.84512 1.68917 -2.49851
-1.84512 1.46987 -2.49851
-1.84512 1.25057 -2.49851
-1.84187 1.02836 -2.47478
-1.84512 0.811976 -2.49851
-1.84512 0.592678 -2.49851
-1.84512 0.373381 -2.49851
-1.62805 7.64784 -2.37002
-1.62805 7.42621 -2.37002
-1.62805 7.20458 -2.37002
-1.62946 6.98014 -2.3944
-1.62946 6.75872 -2.3944
-1.62946 6.53731 -2.3944
-1.63087 6.31373 -2.41873
-1.63227 6.09058 -2.443
-1.63227 5.86959 -2.443
-1.63227 5.6486 -2.443
-1.63227 5.42761 -2.443
-1.63227 5.20662 -2.443
-1.63227 4.98563 -2.443
-1.63367 4.76398 -2.46724
-1.63507 4.54275 -2.49142
-1.63507 4.32218 -2.49142
-1.63507 4.10162 -2.49142
-1.63507 3.88106 -2.49142
-1.63507 3.66049 -2.49142
-1.63507 3.43993 -2.49142
-1.63647 3.22018 -2.51556
-1.63786 3.00086 -2.53966
-1.63786 2.78072 -2.53966
-1.63786 2.56058 -2.53966
-1.63786 2.34044 -2.53966
-1.63786 2.1203 -2.53966
-1.63786 1.90016 -2.53966
-1.63786 1.68002 -2.53966
-1.63786 1.45988 -2.53966
-1.63786 1.23974 -2.53966
-1.63786 1.0196 -2.53966
-1.63786 0.799464 -2.53966
-1.63786 0.579324 -2.53966
-1.63925 0.362744 -2.56371
-1.44377 7.91782 -2.16878
-1.43861 7.65824 -2.41694
-1.43861 7.43597 -2.41694
-1.43861 7.2137 -2.41694
-1.4381 6.98859 -2.44149
-1.4381 6.76653 -2.44149
-1.4381 6.54448 -2.44149
-1.43759 6.32024 -2.46599
-1.43759 6.0984 -2.46599
-1.43759 5.87655 -2.46599
-1.43657 5.65165 -2.51486
-1.43657 5.43023 -2.51486
-1.43657 5.20882 -2.51486
-1.43657 4.9874 -2.51486
-1.43556 4.76465 -2.56354
-1.43556 4.54366 -2.56354
-1.43556 4.32267 -2.56354
-1.43506 4.10165 -2.58781
-1.43556 3.88069 -2.56354
-1.43556 3.6597 -2.56354
-1.43556 3.43872 -2.56354
-1.43556 3.21773 -2.56354
-1.43456 2.9988 -2.61203
-1.43556 2.77575 -2.56354
-1.43506 2.55622 -2.58781
-1.43506 2.33545 -2.58781
-1.43506 2.11467 -2.58781
-1.43456 1.89599 -2.61203
-1.43506 1.67312 -2.58781
-1.43506 1.45234 -2.58781
-1.43506 1.23157 -2.58781
-1.43506 1.01079 -2.58781
-1.43456 0.793172 -2.61203
-1.43456 0.572609 -2.61203
-1.43456 0.352046 -2.61203
-1.24943 7.66521 -2.47335
-1.24943 7.44251 -2.47335
-1.24943 7.2198 -2.47335
-1.24943 6.9971 -2.47335
-1.24943 6.77439 -2.47335
-1.24699 6.54928 -2.49788
-1.24699 6.32679 -2.49788
-1.24454 6.10233 -2.52236
-1.24454 5.88005 -2.52236
-1.24211 5.65624 -2.5468
-1.23968 5.43287 -2.57119
-1.23968 5.21102 -2.57119
-1.23968 4.98918 -2.57119
-1.23968 4.76733 -2.57119
-1.23483 4.54457 -2.61982
-1.23725 4.3234 -2.59553
-1.23725 4.10177 -2.59553
-1.23483 3.88033 -2.61982
-1.23483 3.65891 -2.61982
-1.23483 3.4375 -2.61982
-1.23483 3.21608 -2.61982
-1.23 2.99674 -2.66827
-1.23242 2.7745 -2.64407
-1.23483 2.55184 -2.61982
-1.23242 2.3321 -2.64407
-1.23483 2.10901 -2.61982
-1.23483 1.88759 -2.61982
-1.23483 1.66618 -2.61982
-1.23483 1.44476 -2.61982
-1.23483 1.22335 -2.61982
-1.23483 1.00193 -2.61982
-1.23483 0.780515 -2.61982
-1.23242 0.562487 -2.64407
-1.23242 0.341285 -2.64407
-1.06905 7.67924 -2.46622
-1.06027 7.44907 -2.51508
-1.06466 7.22901 -2.49068
-1.06027 7.0028 -2.51508
-1.06027 6.77966 -2.51508
-1.06027 6.55652 -2.51508
-1.05589 6.33118 -2.53944
-1.05589 6.10826 -2.53944
-1.05152 5.88357 -2.56375
-1.05152 5.66086 -2.56375
-1.05152 5.43816 -2.56375
-1.04716 5.21434 -2.58802
-1.04281 4.99096 -2.61223
-1.04281 4.76869 -2.61223
-1.04281 4.54641 -2.61223
-1.04281 4.32414 -2.61223
-1.03846 4.10183 -2.6364
-1.03846 3.87978 -2.6364
-1.03413 3.65812 -2.66052
-1.03413 3.43627 -2.66052
-1.03413 3.21443 -2.66052
-1.02548 2.99467 -2.70863
-1.03413 2.77074 -2.66052
-1.03413 2.5489 -2.66052
-1.02548 2.33042 -2.70863
-1.02548 2.10901 -2.70863
-1.03413 1.88337 -2.66052
-1.03413 1.66152 -2.66052
-1.03413 1.43968 -2.66052
-1.03413 1.21784 -2.66052
-1.03413 0.995993 -2.66052
-1.03413 0.77415 -2.66052
-1.03413 0.552306 -2.66052
-1.03413 0.330462 -2.66052
-0.90395 7.92159 -2.42163
-0.884899 7.68629 -2.49429
-0.884899 7.46228 -2.49429
-0.87226 7.23209 -2.5425
-0.878574 7.01138 -2.51842
-0.87226 6.78494 -2.5425
-0.87226 6.56137 -2.5425
-0.87226 6.33779 -2.5425
-0.87226 6.11422 -2.5425
-0.86596 5.88887 -2.56653
-0.859672 5.66396 -2.59052
-0.859672 5.44082 -2.59052
-0.853395 5.21657 -2.61446
-0.84713 4.99275 -2.63835
-0.84713 4.77004 -2.63835
-0.84713 4.54734 -2.63835
-0.84713 4.32463 -2.63835
-0.84713 4.10193 -2.63835
-0.84713 3.87922 -2.63835
-0.840879 3.65692 -2.6622
-0.834638 3.43504 -2.686
-0.834638 3.21277 -2.686
-0.828411 2.99154 -2.70975
-0.822196 2.77074 -2.73346
-0.809799 2.55184 -2.78074
-0.834638 2.32368 -2.686
-0.834638 2.1014 -2.686
-0.834638 1.87913 -2.686
-0.834638 1.65685 -2.686
-0.834638 1.43458 -2.686
-0.840879 1.20953 -2.6622
-0.834638 0.990034 -2.686
-0.834638 0.76776 -2.686
-0.834638 0.545486 -2.686
-0.834638 0.323213 -2.686
-0.702917 7.91782 -2.50878
-0.686471 7.68629 -2.55603
-0.686471 7.46228 -2.55603
-0.694686 7.24137 -2.53243
-0.694686 7.01714 -2.53243
-0.686471 6.79025 -2.55603
-0.686471 6.56623 -2.55603
-0.686471 6.34222 -2.55603
-0.686471 6.11821 -2.55603
-0.686471 5.8942 -2.55603
-0.678272 5.66863 -2.57959
-0.670089 5.4435 -2.6031
-0.670089 5.21992 -2.6031
-0.670089 4.99635 -2.6031
-0.653772 4.77141 -2.64998
-0.653772 4.54827 -2.64998
-0.653772 4.32513 -2.64998
-0.653772 4.10199 -2.64998
-0.653772 3.87885 -2.64998
-0.605196 2.99259 -2.78954
-0.637516 2.76569 -2.69668
-0.637516 2.54299 -2.69668
-0.637516 2.32028 -2.69668
-0.637516 2.09758 -2.69668
-0.637516 1.87487 -2.69668
-0.637516 1.65217 -2.69668
-0.637516 1.42946 -2.69668
-0.645637 1.20397 -2.67335
-0.645637 0.98105 -2.67335
-0.637516 0.761345 -2.69668
-0.645637 0.535206 -2.67335
-0.637516 0.315934 -2.69668
-0.595359 7.95202 -2.34779
-0.513995 7.69692 -2.53322
-0.503914 7.46892 -2.5562
-0.503914 7.24447 -2.5562
-0.503914 7.02002 -2.5562
-0.493852 6.79291 -2.57913
-0.503914 6.57112 -2.5562
-0.373268 7.94055 -2.45453
-0.325531 7.70048 -2.54359
-0.325531 7.47559 -2.54359
-0.325531 7.2507 -2.54359
-0.325531 7.02581 -2.54359
-0.325531 6.80092 -2.54359
-0.152195 7.70761 -2.51885
-0.152195 7.48228 -2.51885
-0.152195 7.25695 -2.51885
-0.138565 7.02871 -2.54009
-0.179537 6.81167 -2.47625
-0.138565 3.65205 -2.54009
-0.0978318 3.42883 -2.60356
-0.0843089 3.20523 -2.62463
-0.0978318 2.97993 -2.60356
-0.138565 2.75161 -2.54009
-0.165853 2.52346 -2.49757
-0.152195 2.29965 -2.51885
-0.165853 2.07235 -2.49757
0.0306152 7.71119 -2.50288
0.0306152 7.48564 -2.50288
0.0306152 7.26008 -2.50288
0.0459011 7.03162 -2.52303
0.0915765 5.00089 -2.58322
0.07638 4.77691 -2.56319
0.106743 4.55108 -2.60321
0.136985 4.32613 -2.64306
0.106743 4.10218 -2.60321
0.0915765 3.87754 -2.58322
0.121877 3.65369 -2.62315
0.136985 3.43008 -2.64306
0.106743 3.20438 -2.60321
0.15206 2.98312 -2.66293
0.136985 2.75805 -2.64306
0.136985 2.53404 -2.64306
0.136985 2.31003 -2.64306
0.136985 2.08602 -2.64306
0.121877 1.85985 -2.62315
0.106743 1.63323 -2.60321
0.121877 1.41139 -2.62315
0.136985 1.18997 -2.64306
0.0915765 0.956837 -2.58322
0.210043 7.71478 -2.47384
0.210043 7.489 -2.47384
0.210043 7.26323 -2.47384
0.210043 7.03745 -2.47384
0.343933 4.77415 -2.62417
0.343933 4.55014 -2.62417
0.293971 4.32688 -2.56807
0.277251 4.10224 -2.5493
0.310659 3.87773 -2.58681
0.343933 3.65409 -2.62417
0.277251 3.42757 -2.5493
0.343933 3.20607 -2.62417
0.310659 2.97993 -2.58681
0.293971 2.75419 -2.56807
0.310659 2.53103 -2.58681
0.310659 2.30658 -2.58681
0.310659 2.08213 -2.58681
0.310659 1.85768 -2.58681
0.310659 1.63323 -2.58681
0.310659 1.40878 -2.58681
0.343933 1.18997 -2.62417
0.366815 7.72197 -2.41456
0.366815 7.49575 -2.41456
0.385171 7.26637 -2.43216
0.385171 7.04037 -2.43216
2.48394 6.10379 -4.44544
2.69766 5.87955 -4.65045
2.82325 5.66922 -4.77092
2.93327 5.46329 -4.87646
3.20188 4.86463 -5.13413
3.25453 4.67084 -5.18464
3.30683 4.47833 -5.2348
3.38463 4.28674 -5.30943
3.41039 4.09713 -5.33414
3.38463 3.90761 -5.30943
3.41039 3.71863 -5.33414
3.44887 3.53071 -5.37106
3.43606 3.34133 -5.35877
3.33285 3.1463 -5.25976
3.30683 2.95426 -5.2348
3.28072 2.76157 -5.20976
3.25453 2.56825 -5.18464
3.21508 2.37286 -5.14679
3.16216 2.1749 -5.09603
2.82325 1.15241 -4.77092
0.555128 7.72197 -2.37833
0.555128 7.49575 -2.37833
0.555128 7.26953 -2.37833
0.555128 7.0433 -2.37833
2.54205 6.34002 -4.00512
2.82507 6.10379 -4.23685
3.03912 5.88111 -4.4121
3.21851 5.66648 -4.55897
3.33607 5.46092 -4.65523
3.46643 5.25713 -4.76196
3.538 5.05972 -4.82056
3.56646 4.86596 -4.84386
3.6231 4.67184 -4.89024
3.66533 4.47935 -4.92481
3.72131 4.28764 -4.97065
3.76305 4.09722 -5.00482
3.79077 3.90761 -5.02751
3.80459 3.71834 -5.03883
3.81838 3.52938 -5.05013
3.81838 3.34013 -5.05013
3.83216 3.15163 -5.0614
3.81838 2.96163 -5.05013
3.76305 2.76808 -5.00482
3.72131 2.57448 -4.97065
3.70735 2.38273 -4.95922
3.65128 2.18596 -4.91331
3.60898 1.98961 -4.87867
3.58066 1.79419 -4.85549
3.538 1.59603 -4.82056
3.39425 1.38104 -4.70287
3.24805 1.16237 -4.58316
3.06927 0.934543 -4.43679
2.80958 0.687211 -4.22417
0.781748 7.71478 -2.35646
0.781748 7.489 -2.35646
0.80255 7.26008 -2.37092
0.823313 7.03162 -2.38536
1.12991 6.76653 -2.59852
2.7804 6.34812 -3.74602
3.14878 6.10379 -4.00214
3.37592 5.88111 -4.16005
3.53482 5.66922 -4.27053
3.66 5.46329 -4.35756
3.75277 5.26216 -4.42206
3.84461 5.06306 -4.48591
3.90531 4.8673 -4.52811
3.96562 4.67285 -4.57004
4.02552 4.47969 -4.61168
4.05532 4.28818 -4.6324
4.08502 4.09731 -4.65305
4.11462 3.90707 -4.67363
4.14413 3.71747 -4.69415
4.14413 3.52759 -4.69415
4.14413 3.33771 -4.69415
4.15884 3.14859 -4.70438
4.14413 2.95795 -4.69415
4.11462 2.76592 -4.67363
4.08502 2.57324 -4.65305
4.08502 2.38273 -4.65305
4.02552 2.18596 -4.61168
3.99562 1.99135 -4.5909
3.90531 1.78846 -4.52811
3.84461 1.5877 -4.48591
3.75277 1.38104 -4.42206
3.62887 1.16733 -4.33591
3.45571 0.942633 -4.21553
3.23054 0.704882 -4.05898
0.898343 7.72557 -2.24935
0.920347 7.49575 -2.26221
0.920347 7.26953 -2.26221
1.07316 7.02291 -2.35154
3.02977 6.35219 -3.4953
3.45308 6.10379 -3.74275
3.57322 5.89213 -3.81298
3.67504 5.68443 -3.8725
3.7925 5.47766 -3.94116
3.77581 5.28164 -3.9314
3.75908 5.08529 -3.92163
3.8258 4.88508 -3.96063
1.26658 4.77004 -2.46461
1.09482 3.42883 -2.3642
1.00793 2.97564 -2.31341
1.13801 2.75805 -2.38945
1.13801 2.53404 -2.38945
1.15955 2.31174 -2.40204
1.20249 2.09181 -2.42714
1.20249 1.86846 -2.42714
4.00693 1.95425 -4.06651
4.10432 1.77109 -4.12344
4.05575 1.57086 -4.09505
3.95787 1.3627 -4.03783
3.89206 1.1574 -3.99936
3.77581 0.942633 -3.9314
3.48756 0.69607 -3.7629
3.20833 0.44529 -3.59968
1.095 7.72197 -2.18303
1.16356 7.48564 -2.21618
1.14075 7.26323 -2.20515
1.27694 6.79557 -2.27101
2.93156 6.39159 -3.0712
3.20031 6.15671 -3.20118
3.31344 5.94091 -3.25589
2.61591 5.7916 -2.91856
2.18721 5.61001 -2.71123
2.08263 5.40068 -2.66066
1.89188 5.19363 -2.56841
1.74124 4.98124 -2.49556
1.6105 4.76532 -2.43233
1.47824 4.54687 -2.36837
1.36684 3.87848 -2.31449
1.36684 3.6549 -2.31449
1.38921 3.43195 -2.32531
1.32198 3.20607 -2.2928
1.27694 2.97993 -2.27101
1.23172 2.7529 -2.24915
1.34443 2.53554 -2.30366
1.38921 2.31517 -2.32531
1.41153 2.09374 -2.33611
1.50039 1.87913 -2.37908
1.58857 1.66618 -2.42172
1.65425 1.45234 -2.45349
2.95098 1.3939 -3.0806
3.12422 1.20913 -3.16438
3.55443 1.0649 -3.37244
3.57274 0.865453 -3.38129
3.49931 0.651305 -3.34578
3.31344 0.416177 -3.25589
1.2629 7.72197 -2.09038
1.35741 7.48228 -2.12725
1.38093 7.25382 -2.13642
1.40439 7.02581 -2.14557
1.47451 6.79291 -2.17293
2.66987 6.44334 -2.63919
3.02175 6.19678 -2.77644
3.00135 5.98886 -2.76849
2.66987 5.8044 -2.63919
2.30669 5.61582 -2.49753
2.21954 5.40446 -2.46353
2.08756 5.19363 -2.41205
1.99874 4.97863 -2.37741
1.72814 4.54549 -2.27186
1.72814 4.32365 -2.27186
1.70531 4.10183 -2.26295
1.68243 3.87959 -2.25403
1.68243 3.65732 -2.25403
1.63654 3.43381 -2.23613
1.59047 3.20943 -2.21816
1.49779 2.98206 -2.18201
1.38093 2.75161 -2.13642
1.54422 2.53703 -2.20012
1.59047 2.31688 -2.21816
1.59047 2.09374 -2.21816
1.68243 1.87913 -2.25403
1.77368 1.66618 -2.28962
1.84165 1.45234 -2.31613
1.97643 1.24787 -2.3687
2.96045 1.15666 -2.75253
3.10296 0.966333 -2.80812
3.16348 0.766455 -2.83173
3.26362 0.574 -2.87079
3.16348 0.349779 -2.83173
1.42302 7.72197 -1.98485
1.47167 7.489 -1.99955
1.54429 7.25382 -2.02149
1.5684 7.02581 -2.02877
2.22483 6.50905 -2.22707
2.69457 6.24653 -2.36898
2.80371 6.02282 -2.40194
2.65063 5.82066 -2.3557
2.36095 5.62463 -2.26819
2.29309 5.41081 -2.24769
2.17911 5.19793 -2.21326
2.13321 4.98037 -2.19939
2.08714 4.76198 -2.18548
2.04089 4.54275 -2.1715
1.99446 4.32267 -2.15748
1.94785 4.10174 -2.1434
1.85409 3.87959 -2.11508
1.80694 3.65652 -2.10083
1.71208 3.43133 -2.07218
1.71208 3.20776 -2.07218
1.64045 2.981 -2.05054
1.54429 2.75161 -2.02149
1.7596 2.54002 -2.08653
1.78329 2.31858 -2.09369
1.80694 2.09758 -2.10083
1.85409 1.87913 -2.11508
1.99446 1.67081 -2.15748
2.06403 1.45737 -2.1785
2.13321 1.24517 -2.19939
2.31575 1.04861 -2.25454
2.78196 0.893991 -2.39538
2.84708 0.689669 -2.41505
2.97623 0.496423 -2.45406
2.82541 0.259765 -2.4085
1.62402 7.71478 -1.87792
1.67348 7.48228 -1.88871
1.77182 7.24447 -1.91017
1.79628 7.01714 -1.91551
2.1813 6.53018 -1.99952
2.32264 6.29654 -2.03036
2.43919 6.06747 -2.05579
2.57759 5.8389 -2.08599
2.43919 5.63055 -2.05579
2.32264 5.41851 -2.03036
2.25217 5.20226 -2.01498
2.15758 4.98563 -1.99434
2.15758 4.76465 -1.99434
2.15758 4.54366 -1.99434
2.11001 4.32316 -1.98396
2.06226 4.1018 -1.97355
1.99028 3.87941 -1.95784
1.89366 3.65531 -1.93676
1.79628 3.42946 -1.91551
1.8207 3.20607 -1.92084
1.8207 2.98206 -1.92084
1.72274 2.7529 -1.89946
1.72274 2.52801 -1.89946
2.01432 2.32368 -1.96309
2.01432 2.1014 -1.96309
2.06226 1.88337 -1.97355
2.11001 1.66618 -1.98396
2.20497 1.45486 -2.00468
2.2992 1.24517 -2.02524
2.41597 1.03997 -2.05072
2.71443 0.861081 -2.11585
2.71443 0.645089 -2.11585
2.8048 0.442764 -2.13557
1.76635 7.71478 -1.74471
1.91622 7.46892 -1.76527
1.96579 7.23827 -1.77206
1.91622 7.02002 -1.76527
2.06434 6.77966 -1.78558
2.08886 6.5541 -1.78894
2.18646 6.32242 -1.80233
2.16214 6.10233 -1.79899
2.30741 5.86959 -1.81892
2.21075 5.65471 -1.80566
2.28331 5.42892 -1.81561
2.28331 5.20772 -1.81561
2.21075 4.98918 -1.80566
2.21075 4.76733 -1.80566
2.23498 4.54503 -1.80898
2.21075 4.32365 -1.80566
2.16214 4.10187 -1.79899
2.06434 3.87885 -1.78558
1.96579 3.65409 -1.77206
1.86646 3.42757 -1.75844
1.91622 3.20438 -1.76527
1.96579 2.98206 -1.77206
1.96579 2.75805 -1.77206
1.91622 2.30658 -1.76527
2.13776 2.09949 -1.79565
2.23498 1.88548 -1.80898
2.21075 1.66152 -1.80566
2.30741 1.44982 -1.81892
2.40333 1.23974 -1.83207
2.47478 1.02836 -1.84187
2.68671 0.836715 -1.87093
2.68671 0.619083 -1.87093
2.68671 0.401451 -1.87093
1.97353 7.70404 -1.60513
1.99867 7.47559 -1.60658
1.97353 7.25382 -1.60513
1.99867 7.02581 -1.60658
2.12367 6.78759 -1.61381
2.12367 6.5638 -1.61381
2.12367 6.34001 -1.61381
2.09876 6.11821 -1.61237
2.19808 5.8871 -1.61811
2.14852 5.66707 -1.61524
2.3456 5.43287 -1.62664
2.24744 5.21545 -1.62096
2.24744 4.99275 -1.62096
2.29662 4.76869 -1.62381
2.29662 4.54641 -1.62381
2.24744 4.32463 -1.62096
2.24744 4.10193 -1.62096
2.14852 3.87848 -1.61524
2.04882 3.65328 -1.60948
2.04882 3.42883 -1.60948
2.02377 3.20353 -1.60803
2.04882 2.97993 -1.60948
2.14852 2.76061 -1.61524
2.14852 2.53703 -1.61524
2.07382 2.30831 -1.61093
2.14852 2.08988 -1.61524
2.32113 1.88125 -1.62522
2.27205 1.65451 -1.62239
2.41872 1.44729 -1.63087
2.443 1.22883 -1.63227
2.49142 1.01374 -1.63507
2.70703 0.821298 -1.64754
2.65944 0.596001 -1.64478
2.58771 0.366297 -1.64064
2.09338 7.70404 -1.44534
2.09338 7.47893 -1.44534
2.09338 7.25382 -1.44534
2.11856 7.02581 -1.44481
2.11856 6.80092 -1.44481
2.2188 6.56623 -1.44273
2.1437 6.3489 -1.44429
2.2188 6.11821 -1.44273
2.16878 5.89777 -1.44377
2.1437 5.67489 -1.44429
2.343 5.43949 -1.44015
2.31826 5.21768 -1.44066
2.31826 4.99454 -1.44066
2.36769 4.77004 -1.43963
2.343 4.5478 -1.44015
2.343 4.32488 -1.44015
2.31826 4.10199 -1.44066
2.2188 3.8781 -1.44273
2.19381 3.65369 -1.44325
2.19381 3.42946 -1.44325
2.19381 3.20523 -1.44325
2.2188 2.98206 -1.44273
2.24374 2.75933 -1.44221
2.26863 2.53703 -1.44169
2.31826 2.31688 -1.44066
2.31826 2.09374 -1.44066
2.41694 1.87913 -1.43861
2.36769 1.65217 -1.43963
2.466 1.43968 -1.43759
2.51486 1.22335 -1.43658
2.51486 1.00193 -1.43658
2.36769 0.761345 -1.43963
2.68442 0.582673 -1.43305
2.61203 0.352046 -1.43456
2.22539 7.70048 -1.27414
2.22539 7.47559 -1.27414
2.22539 7.2507 -1.27414
2.25041 7.02291 -1.27165
2.25041 6.79824 -1.27165
2.32516 6.56623 -1.2642
2.27537 6.34667 -1.26916
2.34997 6.11621 -1.26172
2.22539 5.90136 -1.27414
2.39947 5.66551 -1.25679
2.37475 5.4435 -1.25926
2.37475 5.21992 -1.25926
2.42414 4.99454 -1.25433
2.42414 4.77141 -1.25433
2.47335 4.54734 -1.24943
2.47335 4.32463 -1.24943
2.47335 4.10193 -1.24943
2.32516 3.8781 -1.2642
2.37475 3.6549 -1.25926
2.37475 3.43133 -1.25926
2.34997 3.20691 -1.26172
2.39947 2.98524 -1.25679
2.42414 2.76316 -1.25433
2.44877 2.5415 -1.25188
2.42414 2.31688 -1.25433
2.42414 2.09374 -1.25433
2.52236 1.87913 -1.24454
2.52236 1.65685 -1.24454
2.52236 1.43458 -1.24454
2.57119 1.21784 -1.23968
2.57119 0.995993 -1.23968
2.39947 0.751676 -1.25679
2.71653 0.572609 -1.2252
2.66827 0.344879 -1.23
2.41718 7.68629 -1.07787
2.41718 7.46228 -1.07787
2.41718 7.23827 -1.07787
2.41718 7.01426 -1.07787
2.39258 6.79291 -1.08229
2.46622 6.56137 -1.06905
2.44172 6.34001 -1.07346
2.46622 6.11422 -1.06905
2.46622 5.89064 -1.06905
2.46622 5.66707 -1.06905
2.51508 5.44082 -1.06027
2.53944 5.21657 -1.05589
2.56375 4.99275 -1.05152
2.56375 4.77004 -1.05152
2.51508 4.54827 -1.06027
2.51508 4.32513 -1.06027
2.49068 4.10202 -1.06466
2.56375 3.87922 -1.05152
2.51508 3.65571 -1.06027
2.51508 3.43257 -1.06027
2.56375 3.21111 -1.05152
2.56375 2.9884 -1.05152
2.56375 2.76569 -1.05152
2.56375 2.54299 -1.05152
2.56375 2.32028 -1.05152
2.56375 2.09758 -1.05152
2.56375 1.87487 -1.05152
2.61223 1.65685 -1.04281
2.53944 1.42689 -1.05589
2.6364 1.21507 -1.03846
2.6846 0.998965 -1.0298
2.51508 0.754905 -1.06027
2.51508 0.531766 -1.06027
2.75655 0.344879 -1.01686
2.5425 7.67924 -0.872261
2.5425 7.45566 -0.872261
2.5425 7.23209 -0.872261
2.5425 7.00851 -0.872261
2.6622 6.77177 -0.840878
2.61446 6.5541 -0.853395
2.61446 6.33118 -0.853395
2.63835 6.10628 -0.84713
2.63835 5.88357 -0.84713
2.63835 5.66086 -0.84713
2.63835 5.43816 -0.84713
2.686 5.21323 -0.834639
2.63835 4.99275 -0.84713
2.61446 4.77072 -0.853395
2.61446 4.5478 -0.853395
2.63835 4.32463 -0.84713
2.686 4.10187 -0.834639
2.59052 3.87885 -0.859671
2.63835 3.65652 -0.84713
2.6622 3.43443 -0.840878
2.686 3.21277 -0.834639
2.70975 2.99154 -0.828412
2.70975 2.76948 -0.828412
2.70975 2.54743 -0.828412
2.70975 2.32537 -0.828412
2.82783 1.8918 -0.797452
2.70975 1.65919 -0.828412
2.686 1.43458 -0.834639
2.73346 1.21784 -0.822195
2.686 0.76776 -0.834639
2.686 0.545486 -0.834639
2.87475 0.352046 -0.785152
2.62656 7.89908 -0.661922
2.67335 7.66871 -0.645636
2.69668 7.44251 -0.637517
2.69668 7.2198 -0.637517
2.78954 6.76393 -0.605196
2.81264 6.53969 -0.597155
2.78954 6.32024 -0.605196
2.7432 6.10233 -0.621325
2.7432 5.88005 -0.621325
2.76639 5.65624 -0.613253
2.76639 5.43419 -0.613253
2.76639 5.21213 -0.613253
2.76639 4.99007 -0.613253
2.78954 4.76733 -0.605196
2.78954 4.54549 -0.605196
2.78954 4.32365 -0.605196
2.78954 4.1018 -0.605196
2.8357 3.88033 -0.58913
2.8357 3.65891 -0.58913
2.8357 3.4375 -0.58913
2.81264 3.21526 -0.597155
2.88168 2.99674 -0.573124
2.8357 2.77325 -0.58913
2.8357 2.55184 -0.58913
2.92749 2.11655 -0.557181
2.88168 1.8918 -0.573124
2.85872 1.66849 -0.581119
2.8357 1.44476 -0.58913
2.88168 1.22883 -0.573124
2.97312 1.0196 -0.541299
2.81264 0.777335 -0.597155
2.8357 0.5591 -0.58913
2.81264 0.334077 -0.597155
2.78349 7.88052 -0.40418
2.78349 7.65824 -0.40418
2.80598 7.43271 -0.394314
2.82842 7.20761 -0.384465
