# .PCD v0.7 - Point Cloud Data file format
VERSION 0.7
FIELDS x y z rgb
SIZE 4 4 4 4
TYPE F F F F
COUNT 1 1 1 1
WIDTH 1239
HEIGHT 1
VIEWPOINT 0 0 0 1 0 0 0
POINTS 1239
DATA ascii
-1.5120699 2.6405101 -0.458965 9599244
-1.48787 2.60901 -0.45901799 9728528
-1.48787 2.5802701 -0.45901799 10124574
-1.53622 2.55724 -0.45891199 10058529
-1.5120699 2.5256801 -0.458965 9863197
-1.4636199 2.4911399 -0.45907 10322475
-1.5120699 2.46826 -0.458965 9467156
-1.48787 2.4365799 -0.45901799 9796902
-1.5120699 2.41084 -0.458965 8811032
-1.5120699 2.3821399 -0.458965 9730326
-1.53622 2.3564799 -0.45891199 10059287
-1.6083699 2.3369999 -0.45875499 9860367
-1.6083699 2.3083999 -0.45875499 9729298
-1.6323299 2.2829199 -0.45870301 9334547
-1.6323299 2.25436 -0.45870301 9334283
-1.6801 2.23211 -0.458599 9595409
-1.70391 2.20678 -0.45854601 9465358
-1.77507 2.18788 -0.45839101 9790467
-1.7987 2.1626899 -0.45833999 9793293
-1.86929 2.1440001 -0.458186 9726225
-1.89273 2.1189599 -0.458134 9595662
-1.96277 2.1004601 -0.457982 9202964
-1.98603 2.0755601 -0.45793101 9137684
-1.98603 2.04742 -0.45793101 9202200
-2.0323999 2.0258999 -0.45783001 9334042
-2.0555201 2.0011499 -0.45777899 8939793
-2.1475501 1.98646 -0.45757899 8940057
-2.1246099 1.95515 -0.45762801 8809227
-2.1475501 1.93056 -0.45757899 9138184
-2.17044 1.90601 -0.45752901 9333521
-2.19329 1.88152 -0.457479 9006611
-2.2388501 1.86052 -0.45737901 8939539
-2.2388501 1.83267 -0.45737901 8874770
-2.28424 1.81181 -0.45728099 8677391
-2.30687 1.7875201 -0.45723099 8677898
-2.3294499 1.76328 -0.45718101 8808975
-2.3294499 1.73555 -0.45718101 9466903
-2.35199 1.71138 -0.457133 9200670
-2.37449 1.68727 -0.45708299 9202202
-2.37449 1.65958 -0.45708299 8808720
-2.37449 1.6319 -0.45708299 8874512
-2.37449 1.60422 -0.45708299 8810263
-2.39695 1.58023 -0.45703399 8875290
-2.37449 1.54886 -0.45708299 8808723
-2.39695 1.52492 -0.45703399 9135385
-2.39695 1.49726 -0.45703399 9006609
-2.4193599 1.4734 -0.45698601 8810515
-2.4193599 1.44577 -0.45698601 8810521
-2.44172 1.42198 -0.456936 8613152
-2.4193599 1.39051 -0.45698601 8613150
-2.4193599 1.36288 -0.45698601 8219929
-2.4640501 1.34308 -0.45688799 8086799
-2.44172 1.31157 -0.456936 8809759
-2.44172 1.28397 -0.456936 8088335
-2.44172 1.2563699 -0.456936 7299603
-2.4640501 1.23278 -0.45688799 6838031
-2.39695 1.19305 -0.45703399 7167007
-2.4193599 1.16948 -0.45698601 4012826
-2.26157 1.11291 -0.45732901 3749661
-2.35199 1.04637 -0.457133 4734745
-2.39695 1.02712 -0.45703399 6377497
-2.4193599 1.00371 -0.45698601 6641433
-2.44172 0.98034501 -0.456936 6575382
-2.37449 0.93984902 -0.45708299 6047779
-2.35199 0.90782601 -0.457133 5585947
-2.30687 0.87135601 -0.45723099 5586196
-2.39695 0.86119002 -0.45703399 5720076
-2.4193599 0.83793902 -0.45698601 6376463
-2.37449 0.80143899 -0.45708299 6903056
-2.4193599 0.78268099 -0.45698601 7364877
-2.44172 0.75952798 -0.456936 7626509
-2.37449 0.71839303 -0.45708299 7952406
-2.37449 0.69071102 -0.45708299 7822355
-2.35199 0.65844601 -0.457133 8019722
-2.37449 0.635346 -0.45708299 7689987
-2.39695 0.61229098 -0.45703399 7888399
-2.3294499 0.57064801 -0.45718101 7951375
-2.28424 0.53348798 -0.45728099 7953419
-2.28424 0.50569898 -0.45728099 7951627
-2.28424 0.477909 -0.45728099 7888388
-2.2388501 0.440496 -0.45737901 7822860
-2.21609 0.407801 -0.45742899 7623698
-0.80647898 5.0715299 -0.47641 6901009
-0.93374997 5.0438299 -0.478632 7294993
-1.13469 5.01758 -0.48213899 7690254
-1.18441 4.9892702 -0.48300701 7953674
-1.25862 4.9615202 -0.48430201 7825439
-1.30785 4.9334602 -0.48516199 7891481
-1.38131 4.9060202 -0.486444 8547621
-1.43004 4.8782201 -0.48729399 9137686
-1.45433 4.8499699 -0.48771799 8813334
-1.47857 4.8217902 -0.48814201 8682262
-1.5269099 4.79427 -0.488985 9272612
-1.5269099 4.7655902 -0.488985 9534244
-1.5990601 4.7388902 -0.49024501 9272107
-1.62301 4.71099 -0.49066299 9010724
-1.57506 4.6809902 -0.48982599 9930288
-1.57506 4.65236 -0.48982599 9534765
-1.5990601 4.6245198 -0.49024501 9273133
-1.64692 4.5975299 -0.49107999 9274391
-1.67077 4.5698199 -0.49149701 9273133
-1.7183501 4.5430102 -0.492327 9271340
-1.7183501 4.5145602 -0.492327 9862686
-1.76573 4.4879198 -0.49315399 9732126
-1.78935 4.4604602 -0.49356601 9339682
-1.76573 4.4311299 -0.49315399 9471019
-1.76573 4.40273 -0.49315399 9536555
-1.7420599 4.3733201 -0.49274099 9732645
-1.83646 4.3490701 -0.494389 9534226
-1.83646 4.3207598 -0.494389 9930783
-1.83646 4.29245 -0.494389 9533722
-1.83646 4.2641301 -0.494389 9798183
-1.83646 4.2358198 -0.494389 9603110
-1.8599401 4.2086902 -0.494798 9274146
-1.8599401 4.1804099 -0.494798 9471778
-1.8599401 4.1521201 -0.494798 10060586
-1.8599401 4.1238399 -0.494798 10125876
-1.93011 4.0994101 -0.496023 9601847
-1.93011 4.0712099 -0.496023 9535275
-1.90676 4.0416698 -0.49561599 9600807
-1.9534 4.01617 -0.49643001 9337649
-1.90676 3.98522 -0.49561599 9928236
-1.90676 3.95699 -0.49561599 10059809
-1.9534 3.9316499 -0.49643001 9729332
-1.9534 3.9034801 -0.49643001 9597482
-1.9534 3.8753099 -0.49643001 9199129
-1.97666 3.84866 -0.49683601 9714965
-1.9534 3.81897 -0.49643001 9189907
-2.04614 3.7971001 -0.49804801 9837827
-2.04614 3.7690401 -0.49804801 10034183
-2.0922301 3.74422 -0.498853 9707011
-2.13815 3.7195001 -0.49965501 8984069
-2.22944 3.69819 -0.501248 8919811
-2.2521501 3.67203 -0.50164402 8984065
-2.2748201 3.64591 -0.50204098 8852736
-2.3650601 3.62501 -0.50361502 8919040
-2.4768801 3.6059999 -0.50556701 8852992
-2.7191401 3.5975201 -0.50979602 9575168
-2.7409101 3.572 -0.510176 11414297
-2.7843299 3.54828 -0.510934 11152392
-2.80598 3.5228801 -0.51131099 10886410
-2.80598 3.4957299 -0.51131099 10555136
-2.7843299 3.4667399 -0.510934 10099205
-2.7409101 3.4358201 -0.510176 9440768
-2.7191401 3.4066899 -0.50979602 9769219
-2.69732 3.3775101 -0.50941497 9509894
-2.6535699 3.3463099 -0.50865102 9902856
-2.58763 3.313 -0.50749999 10165508
-2.5213101 3.27949 -0.50634199 10295310
-2.4322801 3.24371 -0.50478798 10427398
-2.3875101 3.21189 -0.50400698 10097920
-2.4322801 3.1885099 -0.50478798 10161920
-2.4322801 3.1609099 -0.50478798 10425344
-2.4768801 3.13767 -0.50556701 10162432
-2.49911 3.1123199 -0.50595498 10359040
-2.5213101 3.0870199 -0.50634199 10950148
-2.49911 3.0572701 -0.50595498 11803404
-2.49911 3.0297501 -0.50595498 11411975
-2.49911 3.0022299 -0.50595498 11151372
-2.4546001 2.9700301 -0.50517797 10824196
-2.4546001 2.9424601 -0.50517797 10034950
-1.62301 2.82567 -0.49066299 9582599
-1.5027601 2.78406 -0.48856401 9526539
-1.5027601 2.7553501 -0.48856401 9529607
-1.47857 2.7239599 -0.48814201 9726479
-1.5027601 2.6979301 -0.48856401 9334799
-1.5027601 2.66922 -0.48856401 9533205
-1.45433 2.6349699 -0.48771799 10189598
-1.4057 2.60058 -0.48686901 10059566
-1.47857 2.5802701 -0.48814201 10059306
-1.47857 2.5515299 -0.48814201 10059819
-1.45433 2.5199101 -0.48771799 10387242
-1.47857 2.49406 -0.48814201 10190624
-1.47857 2.4653201 -0.48814201 10125855
-1.45433 2.43361 -0.48771799 10322980
-1.5027601 2.41084 -0.48856401 9861150
-1.5027601 2.3821399 -0.48856401 10058021
-1.47857 2.3503699 -0.48814201 9926684
-1.57506 2.33394 -0.48982599 9859611
-1.57506 2.30531 -0.48982599 10056733
-1.5990601 2.27981 -0.49024501 9729046
-1.67077 2.2606201 -0.49149701 9596437
-1.69458 2.23526 -0.49191201 9726738
-1.69458 2.20678 -0.49191201 9596687
-1.7420599 2.18469 -0.49274099 9792020
-1.78935 2.1626899 -0.49356601 9793041
-1.83646 2.14078 -0.494389 9595411
-1.90676 2.12219 -0.49561599 9332496
-1.93011 2.0972199 -0.496023 9336853
-1.9534 2.0722899 -0.49643001 9137686
-1.99986 2.05071 -0.49724001 9203727
-2.04614 2.0292101 -0.49804801 9466383
-2.02302 1.99781 -0.49764499 9334030
-2.0922301 1.97979 -0.498853 9202963
-2.0692101 1.94841 -0.49845201 9266968
-2.13815 1.93056 -0.49965501 8808723
-2.1838801 1.90942 -0.500453 9006612
-2.2066901 1.88494 -0.50085098 8810263
-2.1838801 1.8536201 -0.500453 8941586
-2.2066901 1.8292 -0.50085098 9137683
-2.2521501 1.80832 -0.50164402 9268504
-2.2521501 1.7805001 -0.50164402 9006359
-2.2974501 1.75976 -0.50243503 8875542
-2.2974501 1.732 -0.50243503 9006611
-2.32003 1.70781 -0.50282902 8875795
-2.32003 1.6800801 -0.50282902 8810262
-2.3650601 1.65958 -0.50361502 8679187
-2.3650601 1.6319 -0.50361502 8677912
-2.3875101 1.60788 -0.50400698 8875290
-2.3650601 1.57654 -0.50361502 8614424
-2.3875101 1.55257 -0.50400698 8810263
-2.3875101 1.52492 -0.50400698 8874782
-2.3875101 1.49726 -0.50400698 8613403
-2.4322801 1.47718 -0.50478798 8874782
-2.4322801 1.44958 -0.50478798 8415762
-2.4322801 1.42198 -0.50478798 8680215
-2.40992 1.39051 -0.50439799 8678942
-2.40992 1.36288 -0.50439799 8809241
-2.40992 1.33525 -0.50439799 8546336
-2.4322801 1.31157 -0.50478798 8219168
-2.4546001 1.28793 -0.50517797 7957025
-2.4546001 1.26035 -0.50517797 7627291
-2.4322801 1.22876 -0.50478798 7365667
-2.4546001 1.2052 -0.50517797 5785371
-2.3650601 1.16131 -0.50361502 4733729
-2.32003 1.12536 -0.50282902 4275984
-2.3425701 1.10179 -0.503223 4142344
-2.32003 1.06989 -0.50282902 4470044
-2.40992 1.05897 -0.50439799 5522199
-2.40992 1.03134 -0.50439799 7231250
-2.40992 1.00371 -0.50439799 7231504
-2.4322801 0.98034501 -0.50478798 6443798
-2.40992 0.94845301 -0.50439799 6112014
-2.32003 0.903476 -0.50282902 5587734
-2.3425701 0.880117 -0.503223 5061399
-2.3425701 0.85240901 -0.503223 5457423
-2.3650601 0.82912099 -0.50361502 6115337
-2.3650601 0.80143899 -0.50361502 7165457
-2.3875101 0.77822399 -0.50400698 7626261
-2.40992 0.75505298 -0.50439799 7888653
-2.3875101 0.72291303 -0.50400698 8019469
-2.3650601 0.69071102 -0.50361502 7692559
-2.3650601 0.663028 -0.50361502 7822868
-2.40992 0.64453799 -0.50439799 7558415
-2.2748201 0.58906698 -0.50204098 7953170
-2.32003 0.57064801 -0.50282902 7887895
-2.32003 0.54291201 -0.50282902 7821328
-2.32003 0.51517701 -0.50282902 8019210
-2.2748201 0.477909 -0.50204098 7953924
-2.2521501 0.44531301 -0.50164402 8018698
-2.1838801 0.40293801 -0.500453 7886622
-0.66844898 5.0995202 -0.48738399 6835983
-0.94945699 5.0441899 -0.49781099 7296282
-1.10008 5.01719 -0.50339901 7689219
-1.1994801 4.9896898 -0.50708801 7824384
-1.2735 4.9619598 -0.50983399 8086558
-1.34707 4.9344001 -0.512564 8218906
-1.37149 4.9060202 -0.51347101 8351511
-1.37149 4.8771701 -0.51347101 9008400
-1.44447 4.8499699 -0.51617801 9007114
-1.5411 4.8235202 -0.51976401 8679184
-1.49288 4.7936602 -0.51797402 9206565
-1.51702 4.7655902 -0.51887 9338407
-1.51702 4.7369099 -0.51887 9207594
-1.5411 4.70892 -0.51976401 8946478
-1.56514 4.6809902 -0.52065599 9142314
-1.56514 4.65236 -0.52065599 9469221
-1.63696 4.62606 -0.52332002 9469474
-1.63696 4.5975299 -0.52332002 9274142
-1.6846 4.5706401 -0.52508801 9270558
-1.7083499 4.5430102 -0.52596903 9730340
-1.6846 4.51368 -0.52508801 9731622
-1.6608 4.4842901 -0.52420598 9532190
-1.6846 4.4567199 -0.52508801 9929259
-1.7320499 4.4301701 -0.52684897 10060837
-1.77932 4.4037199 -0.52860302 10060577
-1.77932 4.37535 -0.52860302 9798696
-1.77932 4.3469901 -0.52860302 9207848
-1.8264 4.3207598 -0.53035003 9535519
-1.75571 4.2891502 -0.52772701 9733679
-1.8264 4.2641301 -0.53035003 10125876
-1.77932 4.23352 -0.52860302 9600555
-1.84986 4.2086902 -0.53122002 9733665
-1.84986 4.1804099 -0.53122002 9863717
-1.84986 4.1521201 -0.53122002 9928488
-1.84986 4.1238399 -0.53122002 9929259
-1.84986 4.0955601 -0.53122002 10126119
-1.94328 4.0725198 -0.53468698 9797668
-1.89667 4.0416698 -0.53295702 9732136
-1.94328 4.01617 -0.53468698 9730863
-1.94328 3.9879999 -0.53468698 9533741
-1.94328 3.95983 -0.53468698 9599534
-1.94328 3.9316499 -0.53468698 9336873
-1.96652 3.9049499 -0.53554899 9531940
-1.94328 3.8753099 -0.53468698 9205020
-1.92 3.8456099 -0.53382301 9596191
-1.94328 3.81897 -0.53468698 9325826
-1.96652 3.7923701 -0.53554899 9905930
-2.0128601 3.7674401 -0.53726798 10099203
-2.03596 3.7409799 -0.53812599 9771524
-2.0820401 3.7162099 -0.53983498 9836047
-2.105 3.6898799 -0.54068702 9573893
-2.19643 3.6686599 -0.54408002 9508608
-2.2645299 3.64591 -0.54660702 9440768
-2.30971 3.6215701 -0.54828298 9115392
-2.3771501 3.5990701 -0.55078602 9114368
-2.4442101 3.5767 -0.55327398 8918020
-2.6868 3.5685101 -0.56227499 9506560
-2.7086 3.543 -0.56308401 11481359
-2.75208 3.51932 -0.56469798 10890512
-2.73036 3.4902899 -0.56389201 11418650
-2.75208 3.4649 -0.56469798 10690832
-2.75208 3.43769 -0.56469798 10426627
-2.7086 3.4066899 -0.56308401 10688003
-2.7086 3.3794301 -0.56308401 10360321
-2.6649599 3.3482699 -0.56146401 10557705
-2.64307 3.31897 -0.56065297 10296595
-2.5771699 3.2855799 -0.55820698 11149073
-2.46648 3.24786 -0.55409998 10556943
-2.39955 3.21401 -0.55161703 10425089
-2.4219 3.1885099 -0.55244601 10163456
-2.46648 3.16522 -0.55409998 10359552
-2.51088 3.14201 -0.55574697 10552576
-2.46648 3.1101201 -0.55409998 10949888
-2.4886999 3.08479 -0.55492401 11148291
-2.4442101 3.0527599 -0.55327398 11742733
-2.46648 3.0274701 -0.55409998 11741452
-2.46648 2.9999199 -0.55409998 11149574
-2.39955 2.9653499 -0.55161703 9837568
-1.6846 2.86182 -0.52508801 9710349
-1.7083499 2.8358901 -0.52596903 9711882
-1.58912 2.7945001 -0.52154601 9459725
-1.51702 2.7579999 -0.51887 9332740
-1.51702 2.72932 -0.51887 9595653
-1.51702 2.70064 -0.51887 9596170
-1.42019 2.66099 -0.51527703 9795867
-1.4687001 2.6377399 -0.51707703 9796119
-1.4687001 2.60901 -0.51707703 10058525
-1.4687001 2.5802701 -0.51707703 9730591
-1.42019 2.54581 -0.51527703 10191912
-1.4687001 2.5228 -0.51707703 10059036
-1.44447 2.4911399 -0.51617801 10585124
-1.49288 2.46826 -0.51797402 10190114
-1.51702 2.4425199 -0.51887 10189599
-1.4687001 2.40785 -0.51707703 9465876
-1.5411 2.38817 -0.51976401 10449947
-1.51702 2.3564799 -0.51887 10120990
-1.56514 2.33394 -0.52065599 10056212
-1.58912 2.3083999 -0.52154601 9860108
-1.61306 2.2829199 -0.522434 9924364
-1.63696 2.2574899 -0.52332002 9858831
-1.6846 2.23526 -0.52508801 9793041
-1.75571 2.21627 -0.52772701 9792778
-1.75571 2.18788 -0.52772701 9726740
-1.8264 2.16909 -0.53035003 9595409
-1.84986 2.1440001 -0.53122002 9595148
-1.8732899 2.1189599 -0.53208899 9135875
-1.96652 2.1037099 -0.53554899 9202963
-1.94328 2.0722899 -0.53468698 9334031
-1.94328 2.0441201 -0.53468698 9465101
-1.96652 2.0192699 -0.53554899 9137431
-2.03596 2.0011499 -0.53812599 9464088
-2.05902 1.97644 -0.53898197 9333018
-2.05902 1.94841 -0.53898197 9268502
-2.1279299 1.93056 -0.541538 9333521
-2.1508 1.90601 -0.54238701 9267983
-2.19643 1.88494 -0.54408002 9005835
-2.19643 1.85707 -0.54408002 9137935
-2.17364 1.82572 -0.54323399 9204759
-2.2191701 1.80483 -0.54492402 9136922
-2.2871399 1.7875201 -0.54744601 8415762
-2.30971 1.76328 -0.54828298 8875543
-2.30971 1.73555 -0.54828298 9136158
-2.30971 1.70781 -0.54828298 8875292
-2.2871399 1.67647 -0.54744601 8875542
-2.3322301 1.65597 -0.549119 9137940
-2.3547201 1.6319 -0.54995298 9137686
-2.39955 1.61154 -0.55161703 8875292
-2.3771501 1.58023 -0.55078602 8874783
-2.3771501 1.55257 -0.55078602 8547870
-2.4219 1.53239 -0.55244601 8940326
-2.3771501 1.49726 -0.55078602 8678942
-2.4219 1.47718 -0.55244601 8874783
-2.39955 1.44577 -0.55161703 8874782
-2.4219 1.42198 -0.55244601 8874012
-2.4219 1.39438 -0.55244601 8612380
-2.39955 1.36288 -0.55161703 8613150
-2.4442101 1.34308 -0.55327398 8348696
-2.4219 1.31157 -0.55244601 8547608
-2.4219 1.28397 -0.55244601 8352539
-2.39955 1.25237 -0.55161703 7168284
-2.39955 1.22474 -0.55161703 6642217
-2.3547201 1.18899 -0.54995298 5523481
-2.3771501 1.13774 -0.55078602 4470050
-2.3547201 1.10594 -0.54995298 5325865
-2.3547201 1.05058 -0.54995298 4998417
-2.3771501 1.02712 -0.55078602 6507789
-2.3771501 0.999466 -0.55078602 7035914
-2.4219 0.98034501 -0.55244601 6642189
-2.39955 0.94845301 -0.55161703 5719075
-2.2191701 0.85815001 -0.54492402 5913345
-2.19643 0.82586002 -0.54408002 7165709
-2.3322301 0.8247 -0.549119 6245379
-2.3547201 0.80143899 -0.54995298 6968329
-2.3771501 0.77822399 -0.55078602 8216086
-2.39955 0.75505298 -0.55161703 7953418
-2.3771501 0.72291303 -0.55078602 7691784
-2.3771501 0.69525701 -0.55078602 7822086
-2.3322301 0.65844601 -0.549119 8346631
-2.3322301 0.63073802 -0.549119 8281091
-2.2871399 0.59372997 -0.54744601 8084757
-2.3322301 0.57532001 -0.549119 8541710
-2.2871399 0.53820503 -0.54744601 8279826
-2.2645299 0.50569898 -0.54660702 8082439
-2.2418699 0.473129 -0.545766 7952905
-2.19643 0.435671 -0.54408002 8082961
-0.73595202 5.10045 -0.504798 6048791
-0.88892603 5.0728798 -0.513484 6835733
-1.0149699 5.04528 -0.52064198 7296017
-1.11489 5.01758 -0.52631497 7230740
-1.18929 4.9896898 -0.53053999 7888651
-1.26324 4.9619598 -0.53473902 7824387
-1.31229 4.9339299 -0.537525 8676620
-1.3855 4.9065199 -0.54168099 8416524
-1.4098001 4.8782201 -0.54306197 8877068
-1.43406 4.8499699 -0.54443902 8943628
-1.45827 4.8217902 -0.54581398 8943640
-1.5065399 4.79427 -0.54855502 8813085
-1.48243 4.7649498 -0.547185 9602607
-1.55461 4.7382302 -0.55128503 9337384
-1.55461 4.70961 -0.55128503 9273130
-1.5306 4.6802702 -0.54992098 9469987
-1.6025 4.6538601 -0.55400401 9600797
-1.62637 4.62606 -0.55535901 9731362
-1.57858 4.5959201 -0.55264598 9469223
-1.65019 4.5698199 -0.55671197 9796894
-1.67396 4.54216 -0.55806202 9797406
-1.69769 4.5145602 -0.55940902 9731352
-1.72137 4.48702 -0.560754 9338403
-1.69769 4.4576602 -0.55940902 9271591
-1.74501 4.4311299 -0.562096 9731370
-1.7686 4.4037199 -0.56343502 9796904
-1.74501 4.3743401 -0.562096 9796900
-1.79214 4.3480301 -0.56477201 9731362
-1.79214 4.3196902 -0.56477201 9273380
-1.7686 4.2902498 -0.56343502 9471013
-1.86248 4.2663798 -0.568766 9533722
-1.83908 4.2369699 -0.56743801 9272604
-1.81563 4.20751 -0.56610698 9866026
-1.83908 4.1804099 -0.56743801 9274399
-1.86248 4.1533499 -0.568766 9732136
-1.8858401 4.1263499 -0.57009298 9862948
-1.86248 4.0968399 -0.568766 9468704
-1.8858401 4.0699 -0.57009298 9797668
-1.86248 4.0403299 -0.568766 9863206
-1.90914 4.0148101 -0.57141602 9926697
-1.8858401 3.98522 -0.57009298 9926951
-1.90914 3.95841 -0.57141602 9927197
-1.90914 3.9302101 -0.57141602 9860391
-1.93241 3.9034801 -0.57273799 9597733
-1.93241 3.8753099 -0.57273799 9465891
-1.93241 3.8471401 -0.57273799 9529380
-2.00193 3.8236201 -0.57668501 8400389
-1.9556299 3.7923701 -0.57405603 9514761
-1.9556299 3.76423 -0.57405603 9839620
-2.0250101 3.7409799 -0.577995 9247232
-2.0480399 3.71457 -0.57930398 9445121
-2.0939801 3.6898799 -0.58191198 9773059
-2.16255 3.66698 -0.58580601 9574915
-2.1853199 3.64079 -0.58709902 9508352
-2.25336 3.61812 -0.59096301 9443328
-2.3210001 3.5955901 -0.59480399 9179648
-2.3882599 3.57318 -0.59862202 9309952
-2.4551201 3.5509 -0.60241902 8919041
-2.65342 3.5394599 -0.61367899 9510149
-2.67524 3.5139401 -0.61491799 10954000
-2.67524 3.48666 -0.61491799 11942965
-2.6970301 3.46122 -0.61615503 11489091
-2.71877 3.4358201 -0.61738998 10558483
-2.6970301 3.4066899 -0.61615503 10099473
-2.6970301 3.3794301 -0.61615503 10884359
-2.65342 3.3482699 -0.61367899 10295562
-2.6096499 3.3169799 -0.611193 10099457
-2.5657101 3.2855799 -0.60869902 10556938
-2.47732 3.2499299 -0.60368001 9834759
-2.3882599 3.21401 -0.59862202 10097921
-2.3882599 3.1863799 -0.59862202 10688003
-2.4328799 3.1630599 -0.601156 10622464
-2.4328799 3.1354899 -0.601156 11278592
-2.4105899 3.1057 -0.59988999 11807750
-2.4328799 3.0803399 -0.601156 11675653
-2.4328799 3.0527599 -0.601156 11280906
-2.4105899 3.0229001 -0.59988999 11739913
-2.3882599 2.99298 -0.59862202 11215875
-2.3434601 2.96064 -0.59607899 9314816
-1.7686 2.8718801 -0.56343502 8991489
-1.65019 2.83079 -0.55671197 8991744
-1.55461 2.7918999 -0.55128503 9329409
-1.5065399 2.7579999 -0.54855502 9331978
-1.5065399 2.72932 -0.54855502 9596437
-1.5065399 2.70064 -0.54855502 9531402
-1.45827 2.6664801 -0.54581398 10123787
-1.45827 2.6377399 -0.54581398 9795608
-1.45827 2.60901 -0.54581398 9532443
-1.48243 2.5831001 -0.547185 9862687
-1.43406 2.5486701 -0.54443902 10191648
-1.43406 2.5199101 -0.54443902 10059815
-1.4098001 2.48822 -0.54306197 10059819
-1.43406 2.4623699 -0.54443902 10059793
-1.5306 2.4454801 -0.54992098 9859860
-1.5065399 2.4138401 -0.54855502 9860365
-1.5065399 2.38516 -0.54855502 9729308
-1.5306 2.35952 -0.54992098 10056223
-1.55461 2.33394 -0.55128503 9859606
-1.55461 2.30531 -0.55128503 9465610
-1.55461 2.27669 -0.55128503 9530899
-1.65019 2.2606201 -0.55671197 9726223
-1.67396 2.23526 -0.55806202 10055691
-1.69769 2.20995 -0.55940902 9595412
-1.7686 2.1910601 -0.56343502 9594894
-1.79214 2.1659 -0.56477201 9595151
-1.81563 2.14078 -0.56610698 9269775
-1.83908 2.11572 -0.56743801 9333521
-1.90914 2.0972199 -0.57141602 9202963
-1.90914 2.06902 -0.57141602 9137681
-1.9788001 2.05071 -0.57537103 9202963
-1.9788001 2.0225899 -0.57537103 9465102
-2.00193 1.99781 -0.57668501 9005334
-2.0480399 1.97644 -0.57930398 9005835
-2.0939801 1.95515 -0.58191198 9006354
-2.1168799 1.93056 -0.58321297 9006358
-2.1168799 1.9026099 -0.58321297 8874765
-2.16255 1.88152 -0.58580601 8939805
-2.23072 1.86395 -0.58967698 8874000
-2.20804 1.83267 -0.58838898 9200401
-2.20804 1.80483 -0.58838898 9137673
-2.20804 1.7769901 -0.58838898 9137683
-2.25336 1.75623 -0.59096301 8941334
-2.2985001 1.73555 -0.59352499 8679447
-2.3210001 1.71138 -0.59480399 8940819
-2.2985001 1.6800801 -0.59352499 8810003
-2.3434601 1.65958 -0.59607899 8875292
-2.3434601 1.6319 -0.59607899 9005599
-2.36588 1.60788 -0.59735203 9006612
-2.3882599 1.58391 -0.59862202 8611599
-2.3434601 1.54886 -0.59607899 8349710
-2.3882599 1.5286601 -0.59862202 8679192
-2.3882599 1.50103 -0.59862202 8612121
-2.3434601 1.4658099 -0.59607899 8809243
-2.36588 1.44195 -0.59735203 8547871
-2.3882599 1.4181401 -0.59862202 8416542
-2.3434601 1.38276 -0.59607899 8416795
-2.3882599 1.36288 -0.59862202 8349971
-2.4105899 1.33917 -0.59988999 8546312
-2.3882599 1.3076299 -0.59862202 8547100
-2.3882599 1.28 -0.59862202 8087590
-2.3882599 1.25237 -0.59862202 6970395
-2.3434601 1.21667 -0.59607899 5127691
-2.2985001 1.18083 -0.59352499 4008704
-2.3210001 1.15721 -0.59480399 2957578
-2.2985001 1.12536 -0.59352499 4009737
-2.3882599 1.03134 -0.59862202 6508050
-2.36588 0.999466 -0.59735203 7034131
-2.36588 0.971811 -0.59735203 6837792
-2.3434601 0.93984902 -0.59607899 6637323
-2.2985001 0.903476 -0.59352499 5782296
-2.2985001 0.875741 -0.59352499 5123842
-2.3434601 0.856803 -0.59607899 5259264
-2.3434601 0.82912099 -0.59607899 6113544
-2.3882599 0.81031001 -0.59862202 7032580
-2.3882599 0.78268099 -0.59862202 7624204
-2.3882599 0.75505298 -0.59862202 7887631
-2.4105899 0.73192602 -0.59988999 8018963
-2.36588 0.69525701 -0.59735203 7953171
-2.3882599 0.67216599 -0.59862202 7952913
-2.3434601 0.635346 -0.59607899 7953157
-2.3210001 0.60302901 -0.59480399 8018952
-2.2985001 0.57064801 -0.59352499 8017418
-2.27595 0.53820503 -0.59224498 8345099
-2.27595 0.51044297 -0.59224498 8343823
-2.25336 0.477909 -0.59096301 8083210
-2.20804 0.440496 -0.58838898 7951879
-2.1853199 0.407801 -0.58709902 7886602
-0.75149298 5.10076 -0.52110797 6246166
-0.92918098 5.0441899 -0.53470302 7296783
-1.00455 5.0160198 -0.54046899 6644484
-1.12916 4.9888501 -0.55000198 7824679
-1.2279299 4.9615202 -0.557558 8089627
-1.27702 4.9334602 -0.56131399 8024079
-1.3259 4.90552 -0.565054 8287251
-1.35028 4.8771701 -0.56691903 8616231
-1.42309 4.8499699 -0.57248998 9206038
-1.42309 4.8212099 -0.57248998 9338397
-1.44727 4.7930498 -0.57433999 9274142
-1.4714 4.7649498 -0.57618499 9273130
-1.4954799 4.7369099 -0.57802802 9600809
-1.4714 4.70753 -0.57618499 9865522
-1.5434901 4.6809902 -0.58170098 9536304
-1.5434901 4.65236 -0.58170098 9470760
-1.56742 4.6245198 -0.58353198 9536285
-1.59131 4.5967302 -0.58535999 9732126
-1.59131 4.5681601 -0.58535999 9537062
-1.61515 4.5404501 -0.58718401 9603372
-1.66268 4.51368 -0.59082001 9536558
-1.61515 4.4833798 -0.58718401 9537327
-1.68638 4.4576602 -0.59263301 9471019
-1.68638 4.4292002 -0.59263301 9340455
-1.68638 4.4007502 -0.59263301 9340978
-1.68638 4.3723001 -0.59263301 9338929
-1.75719 4.3469901 -0.59805101 9274148
-1.75719 4.3186202 -0.59805101 9537832
-1.7807 4.2913499 -0.59985 9799475
-1.7807 4.26301 -0.59985 9733685
-1.7807 4.2346702 -0.59985 9602610
-1.82758 4.2086902 -0.60343599 9339949
-1.80417 4.1792002 -0.60164499 9340978
-1.82758 4.1521201 -0.60343599 9734190
-1.82758 4.1238399 -0.60343599 9864745
-1.87428 4.0981302 -0.60700899 9798698
-1.87428 4.0699 -0.60700899 9732653
-1.85095 4.0403299 -0.60522401 9732653
-1.87428 4.0134401 -0.60700899 9273384
-1.89756 3.9866099 -0.60878998 10126130
-1.87428 3.95699 -0.60700899 9797678
-1.87428 3.9287601 -0.60700899 9470001
-1.92079 3.9034801 -0.61056799 9796143
-1.89756 3.8738101 -0.60878998 9534004
-1.89756 3.8456099 -0.60878998 9140270
-1.92079 3.81897 -0.61056799 8940327
-1.94398 3.7923701 -0.612342 9786137
-1.94398 3.76423 -0.612342 9711367
-1.99022 3.7393501 -0.615879 9839117
-2.0132699 3.7129099 -0.61764199 9313804
-2.0592401 3.68821 -0.62115902 9837317
-2.10502 3.6636 -0.624663 9445891
-2.15063 3.63908 -0.62815201 9444362
-2.19607 3.61466 -0.63162798 9312782
-2.2413199 3.5903299 -0.63509101 8985602
-2.3088801 3.5678799 -0.64025903 9575181
-2.33131 3.54197 -0.64197499 9311232
-2.4428201 3.52335 -0.65050602 9181443
-2.5532601 3.50492 -0.65895599 9772037
-2.61902 3.483 -0.66398698 10563105
-2.6408601 3.45752 -0.66565698 12735827
-2.6408601 3.4302101 -0.66565698 13334911
-2.6408601 3.40289 -0.66565698 12544350
-2.6408601 3.3755801 -0.66565698 10628383
-2.6408601 3.3482699 -0.66565698 10296327
-2.5971501 3.3169799 -0.66231298 10297091
-2.5532601 3.2855799 -0.65895599 10295812
-2.4649899 3.2499299 -0.65220201 9836550
-2.39834 3.21611 -0.64710301 9834500
-2.33131 3.1821001 -0.64197499 10886155
-2.39834 3.1609099 -0.64710301 11670533
-2.39834 3.1333101 -0.64710301 11676164
-2.4205999 3.1079099 -0.64880699 11479820
-2.39834 3.0781 -0.64710301 11806742
-2.37604 3.0482299 -0.64539701 11478300
-2.3536999 3.0183101 -0.64368802 11147537
-2.33131 2.9883201 -0.64197499 10560003
-1.82758 2.90765 -0.60343599 9121792
-1.68638 2.8643501 -0.59263301 9254144
-1.66268 2.8333399 -0.59082001 9453312
-1.4714 2.78406 -0.57618499 9595661
-1.51951 2.7606399 -0.57986599 8085766
-1.44727 2.7239599 -0.57433999 9795860
-1.44727 2.69522 -0.57433999 9599501
-1.4714 2.66922 -0.57618499 9534224
-1.4714 2.6405101 -0.57618499 9731862
-1.4714 2.6118 -0.57618499 9271833
-1.44727 2.5802701 -0.57433999 9930791
-1.3746001 2.5429299 -0.56877899 10128943
-1.39887 2.51701 -0.57063699 10192940
-1.44727 2.49406 -0.57433999 10388519
-1.44727 2.4653201 -0.57433999 10192407
-1.44727 2.4365799 -0.57433999 10059304
-1.39887 2.40183 -0.57063699 10060837
-1.4954799 2.38516 -0.57802802 9533723
-1.4714 2.35343 -0.57618499 10059557
-1.4954799 2.3278 -0.57802802 10058023
-1.56742 2.3083999 -0.58353198 9795610
-1.56742 2.27981 -0.58353198 10058516
-1.61515 2.2574899 -0.58718401 9729808
-1.66268 2.23526 -0.59082001 9201667
-1.63894 2.2035999 -0.58900398 9532439
-1.68638 2.1815 -0.59263301 9532188
-1.7807 2.1659 -0.59985 9333266
-1.80417 2.14078 -0.60164499 9530649
-1.82758 2.11572 -0.60343599 9203474
-1.87428 2.09396 -0.60700899 9138700
-1.92079 2.0722899 -0.61056799 9599011
-1.94398 2.04742 -0.612342 9793052
-1.9671201 2.0225899 -0.61411202 9466650
-1.99022 1.99781 -0.615879 9335337
-2.0132699 1.9730901 -0.61764199 9005852
-2.0132699 1.94502 -0.61764199 9138191
-2.10502 1.93056 -0.624663 9465884
-2.10502 1.9026099 -0.624663 9269796
-2.10502 1.87465 -0.624663 9137953
-2.15063 1.8536201 -0.62815201 9531937
-2.1733699 1.8292 -0.62989199 9202961
-2.1733699 1.80133 -0.62989199 9137673
-2.19607 1.7769901 -0.63162798 9008402
-2.21872 1.75269 -0.63336003 9270562
-2.2864001 1.73555 -0.63853902 8941083
-2.3088801 1.71138 -0.64025903 9269037
-2.2864001 1.6800801 -0.63853902 9334816
-2.3088801 1.65597 -0.64025903 9137686
-2.2864001 1.6246001 -0.63853902 9006625
-2.33131 1.60422 -0.64197499 9006625
-2.3536999 1.58023 -0.64368802 8811303
-2.37604 1.55628 -0.64539701 8612381
-2.37604 1.5286601 -0.64539701 8942609
-2.39834 1.5047801 -0.64710301 9007898
-2.3536999 1.46961 -0.64368802 9009433
-2.33131 1.43813 -0.64197499 8418068
-2.37604 1.4181401 -0.64539701 8614682
-2.39834 1.39438 -0.64710301 8287256
-2.39834 1.36677 -0.64710301 8220448
-2.39834 1.33917 -0.64710301 8352295
-2.39834 1.31157 -0.64710301 7957023
-2.39834 1.28397 -0.64710301 7694616
-2.37604 1.25237 -0.64539701 6380570
-2.3536999 1.22071 -0.64368802 3158275
-2.33131 1.18899 -0.64197499 4798986
-2.33131 1.16131 -0.64197499 4405780
-2.33131 1.13362 -0.64197499 4011288
-2.33131 1.10594 -0.64197499 3947304
-2.33131 1.0782599 -0.64197499 3159836
-2.3536999 1.05478 -0.64368802 4075797
-2.33131 1.0229 -0.64197499 6180894
-2.37604 1.00371 -0.64539701 6972438
-2.39834 0.98034501 -0.64710301 6641426
-2.33131 0.93984902 -0.64197499 6246170
-2.33131 0.91216803 -0.64197499 4997127
-2.33131 0.88448501 -0.64197499 4866823
-2.33131 0.856803 -0.64197499 6246677
-2.37604 0.83793902 -0.64539701 6441226
-2.3536999 0.805879 -0.64368802 7298067
-2.33131 0.77375698 -0.64197499 7233810
-2.33131 0.74607497 -0.64197499 7561741
-2.33131 0.71839303 -0.64197499 7823879
-2.2864001 0.68159097 -0.63853902 7694347
-2.33131 0.663028 -0.64197499 8087308
-2.3088801 0.63073802 -0.64025903 8020746
-2.2864001 0.59838402 -0.63853902 8018966
-2.33131 0.57998198 -0.64197499 7822867
-2.2864001 0.54291201 -0.63853902 8085003
-2.26388 0.51044297 -0.63681602 8084745
-2.2413199 0.477909 -0.63509101 7823111
-2.21872 0.44531301 -0.63336003 8019215
-2.15063 0.40293801 -0.62815201 8543247
-0.86808199 5.0728798 -0.547988 6837004
-0.893318 5.0438299 -0.55041701 6904836
-1.04366 5.0167999 -0.56489301 7297813
-1.1428699 4.9892702 -0.57444602 7821835
-1.19217 4.9610701 -0.579193 7890206
-1.2657501 4.9334602 -0.58627898 8350482
-1.3145601 4.90552 -0.59097803 8812580
-1.33889 4.8771701 -0.59332103 8219926
-1.3874 4.8494201 -0.597992 8879389
-1.41158 4.8212099 -0.60031998 9533743
-1.43571 4.7930498 -0.60264403 9535014
-1.4598 4.7649498 -0.604963 9731884
-1.50783 4.7375698 -0.60958803 9599775
-1.50783 4.70892 -0.60958803 9271845
-1.50783 4.6802702 -0.60958803 9207340
-1.53177 4.65236 -0.611893 10059819
-1.53177 4.6237402 -0.611893 9731362
-1.57951 4.5967302 -0.61649001 9469734
-1.60331 4.5689902 -0.61878198 9337638
-1.60331 4.5404501 -0.61878198 9534246
-1.60331 4.51191 -0.61878198 9536301
-1.6270601 4.4842901 -0.62106901 9469231
-1.69803 4.45859 -0.62790298 9338658
-1.72159 4.4311299 -0.630171 9862435
-1.69803 4.4017401 -0.62790298 9731371
-1.72159 4.3743401 -0.630171 9207597
-1.74511 4.3469901 -0.63243598 9272612
-1.76858 4.3196902 -0.63469601 9273891
-1.76858 4.2913499 -0.63469601 9469726
-1.81538 4.2652602 -0.639202 9796904
-1.7920099 4.2358198 -0.63695198 9601060
-1.81538 4.2086902 -0.639202 9601565
-1.83871 4.1816101 -0.64144802 9536553
-1.81538 4.1521201 -0.639202 9273130
-1.83871 4.1251001 -0.64144802 9339437
-1.83871 4.0968399 -0.64144802 9142314
-1.862 4.0699 -0.643691 9339688
-1.862 4.0416698 -0.643691 9273388
-1.862 4.0134401 -0.643691 9273891
-1.862 3.98522 -0.643691 9338910
-1.862 3.95699 -0.643691 9930793
-1.88524 3.9302101 -0.64592898 9732656
-1.90843 3.9034801 -0.64816201 9796145
-1.88524 3.8738101 -0.64592898 9861677
-1.90843 3.8471401 -0.64816201 9335337
-1.90843 3.81897 -0.64816201 9532186
-1.90843 3.7907901 -0.64816201 9728795
-1.90843 3.76262 -0.64816201 9128213
-1.95468 3.73772 -0.65261501 9446929
-1.95468 3.7096 -0.65261501 9707269
-2.02372 3.6865301 -0.65926301 9574915
-2.06952 3.6619 -0.66367298 9444867
-2.11514 3.6373601 -0.66806602 9836032
-2.1832399 3.61466 -0.67462301 9309952
-2.1832399 3.5868199 -0.67462301 8918275
-2.2734301 3.5660999 -0.68330598 9244928
-2.2958601 3.54017 -0.685467 9180672
-2.36291 3.51792 -0.69192302 9247234
-2.42958 3.4958 -0.69834203 9181696
-2.53983 3.4775 -0.70895898 9704960
-2.5617599 3.4519501 -0.71107 10822675
-2.5836401 3.42644 -0.71317703 11942959
-2.5836401 3.39908 -0.71317703 12206889
-2.5836401 3.3717101 -0.71317703 11415317
-2.5836401 3.3443501 -0.71317703 10823170
-2.53983 3.313 -0.70895898 10034436
-2.53983 3.2855799 -0.70895898 9837316
-2.45171 3.2499299 -0.70047402 9769219
-2.36291 3.21401 -0.69192302 9837315
-2.34061 3.1842401 -0.68977499 10166274
-2.4073999 3.1630599 -0.69620699 10951424
-2.4073999 3.1354899 -0.69620699 11213568
-2.36291 3.1034901 -0.69192302 11152644
-2.36291 3.07586 -0.69192302 11217670
-2.34061 3.0459599 -0.68977499 10425858
-2.31826 3.01601 -0.68762302 9773315
-2.06952 2.96241 -0.66367298 9250310
-1.7920099 2.90519 -0.63695198 8924164
-1.72159 2.86937 -0.630171 9253891
-1.57951 2.82567 -0.61649001 9195268
-1.50783 2.78929 -0.60958803 9004814
-1.48384 2.7579999 -0.60727799 9202948
-1.48384 2.72932 -0.60727799 9465610
-1.4598 2.6979301 -0.604963 9730324
-1.50783 2.67469 -0.60958803 9598995
-1.4598 2.6405101 -0.604963 9927959
-1.41158 2.6062 -0.60031998 9929248
-1.4598 2.5831001 -0.604963 9274146
-1.43571 2.5515299 -0.60264403 9470760
-1.41158 2.5199101 -0.60031998 9929759
-1.41158 2.4911399 -0.60031998 10125348
-1.41158 2.4623699 -0.60031998 9864736
-1.43571 2.4365799 -0.60264403 9731875
-1.43571 2.40785 -0.60264403 9862687
-1.48384 2.38516 -0.60727799 9861154
-1.48384 2.3564799 -0.60727799 9861141
-1.48384 2.3278 -0.60727799 10318359
-1.53177 2.30531 -0.611893 10186776
-1.57951 2.2829199 -0.61649001 9467676
-1.57951 2.25436 -0.61649001 9334557
-1.6507601 2.23526 -0.62335098 9727766
-1.67442 2.20995 -0.62562901 9136924
-1.67442 2.1815 -0.62562901 9596707
-1.72159 2.1594801 -0.630171 9136140
-1.7920099 2.14078 -0.63695198 9137423
-1.862 2.12219 -0.643691 9267730
-1.81538 2.08743 -0.639202 9465108
-1.90843 2.0722899 -0.64816201 9005845
-1.90843 2.0441201 -0.64816201 9334029
-1.97774 2.0258999 -0.65483499 9333267
-2.0007501 2.0011499 -0.65705103 9465102
-2.0466399 1.97979 -0.66147 9202440
-2.0466399 1.95178 -0.66147 9005836
-2.09235 1.93056 -0.66587198 9005601
-2.09235 1.9026099 -0.66587198 9202463
-2.11514 1.87809 -0.66806602 8810262
-2.11514 1.85016 -0.66806602 8810516
-2.1832399 1.83267 -0.67462301 9202455
-2.2058499 1.80832 -0.67680001 9006358
-2.22842 1.7840199 -0.67897397 9006612
-2.22842 1.75623 -0.67897397 9006863
-2.2734301 1.73555 -0.68330598 8810263
-2.2734301 1.70781 -0.68330598 8875796
-2.2734301 1.6800801 -0.68330598 9006861
-2.2958601 1.65597 -0.685467 8875543
-2.31826 1.6319 -0.68762302 9006876
-2.34061 1.60788 -0.68977499 8350212
-2.34061 1.58023 -0.68977499 8810515
-2.34061 1.55257 -0.68977499 8810008
-2.34061 1.52492 -0.68977499 8810516
-2.38518 1.5047801 -0.694067 8678943
-2.36291 1.4734 -0.69192302 8679966
-2.38518 1.44958 -0.694067 8548122
-2.36291 1.4181401 -0.69192302 8613393
-2.38518 1.39438 -0.694067 8613133
-2.34061 1.35899 -0.68977499 8612121
-2.36291 1.33525 -0.69192302 8546831
-2.38518 1.31157 -0.694067 8022801
-2.36291 1.28 -0.69192302 7693073
-2.36291 1.25237 -0.69192302 7164696
-2.36291 1.22474 -0.69192302 5523215
-2.36291 1.1971101 -0.69192302 5324314
-2.34061 1.1654 -0.68977499 6378537
-2.36291 1.14185 -0.69192302 4734745
-2.36291 1.03134 -0.69192302 6246422
-2.36291 1.00371 -0.69192302 7299338
-2.34061 0.971811 -0.68977499 7232526
-2.36291 0.94845301 -0.69192302 6507018
-2.34061 0.91650099 -0.68977499 7298076
-2.36291 0.89319599 -0.69192302 6047503
-2.34061 0.86119002 -0.68977499 7165441
-2.31826 0.82912099 -0.68762302 7297551
-2.34061 0.805879 -0.68977499 7820057
-2.34061 0.77822399 -0.68977499 7692559
-2.36291 0.75505298 -0.69192302 7363858
-2.36291 0.72742403 -0.69192302 7626261
-2.31826 0.69071102 -0.68762302 7822860
-2.31826 0.663028 -0.68762302 7888136
-2.31826 0.635346 -0.68762302 7888135
-2.2734301 0.59838402 -0.68330598 8083211
-2.2509501 0.56596798 -0.68114197 8280082
-2.22842 0.53348798 -0.67897397 8084237
-2.22842 0.50569898 -0.67897397 7953412
-2.1832399 0.46834001 -0.67462301 7886602
-2.2058499 0.44531301 -0.67680001 7953419
-2.1605899 0.407801 -0.67244202 7887631
-0.67940801 5.0705099 -0.54428101 6968608
-0.93255299 5.04456 -0.57368302 6773772
-0.98256099 5.0160198 -0.57949102 6839320
-1.10669 4.9888501 -0.59390801 7362071
-1.18057 4.9610701 -0.60248899 8022297
-1.2539901 4.9334602 -0.61101699 8546838
-1.2539901 4.90452 -0.61101699 8353047
-1.35121 4.8776898 -0.622307 8615965
-1.35121 4.8488698 -0.622307 9009189
-1.42361 4.8217902 -0.63071603 8944418
-1.3753901 4.7918301 -0.62511599 8945193
-1.39952 4.76368 -0.62791902 9207846
-1.4476399 4.7362399 -0.63350803 9338924
-1.4476399 4.70753 -0.63350803 9207848
-1.4955699 4.6802702 -0.63907498 9339690
-1.51946 4.65236 -0.64184999 8946218
-1.5433 4.6245198 -0.64461899 9010977
-1.51946 4.59512 -0.64184999 9798689
-1.5433 4.5673299 -0.64461899 9603120
-1.5671 4.5395899 -0.64738297 9339690
-1.5671 4.5110302 -0.64738297 9338403
-1.68538 4.48702 -0.66112 9207848
-1.66181 4.4576602 -0.65838301 9208366
-1.66181 4.4292002 -0.65838301 9207844
-1.68538 4.4017401 -0.66112 9339437
-1.68538 4.3733201 -0.66112 9535276
-1.70889 4.3459401 -0.66385102 9273130
-1.68538 4.3164701 -0.66112 9273130
-1.73236 4.2902498 -0.66657698 9469234
-1.75578 4.26301 -0.66929698 9338683
-1.77915 4.2358198 -0.67201298 9338674
-1.75578 4.2063298 -0.66929698 9272885
-1.77915 4.1792002 -0.67201298 9207345
-1.75578 4.1496501 -0.66929698 8945460
-1.77915 4.1225801 -0.67201298 8945717
-1.77915 4.0942702 -0.67201298 9142841
-1.82577 4.0685902 -0.67742598 9535276
-1.82577 4.0403299 -0.67742598 9602602
-1.82577 4.0120802 -0.67742598 9469482
-1.849 3.98522 -0.680125 9534765
-1.87219 3.95841 -0.682818 9468462
-1.82577 3.92731 -0.67742598 9928236
-1.849 3.9005301 -0.680125 9928749
-1.849 3.8722999 -0.680125 9797677
-1.89534 3.8471401 -0.685507 8877857
-1.89534 3.81897 -0.685507 9534255
-1.89534 3.7907901 -0.685507 9335599
-1.89534 3.76262 -0.685507 8411169
-1.89534 3.7344501 -0.685507 8340243
-1.9414901 3.7096 -0.69086701 9578245
-1.98747 3.68485 -0.69620699 9903875
-2.0332601 3.6602001 -0.70152599 9902336
-2.0788801 3.6356399 -0.706824 9772288
-2.10162 3.6094401 -0.70946503 9575937
-2.14697 3.5850501 -0.714733 9444104
-2.2146599 3.5625401 -0.72259498 9703172
-2.2595699 3.5383699 -0.72781003 10163464
-2.3266101 3.5160999 -0.73559701 9575936
-2.4154 3.4958 -0.74590898 9705216
-2.43749 3.4701099 -0.74847502 9249024
-2.48154 3.4463401 -0.753591 9704704
-2.5035 3.4207699 -0.75614297 11151375
-2.52542 3.3952501 -0.75868899 11415317
-2.52542 3.36783 -0.75868899 11282968
-2.52542 3.34041 -0.75868899 11216917
-2.5035 3.3110001 -0.75614297 10033429
-2.48154 3.2815199 -0.753591 10097418
-2.43749 3.2499299 -0.74847502 9836803
-2.3710899 3.21611 -0.74076301 10164995
-2.3710899 3.1885099 -0.74076301 10558734
-2.3710899 3.1609099 -0.74076301 11411207
-2.34887 3.13112 -0.73818302 11477526
-2.3043101 3.09905 -0.733006 11020297
-2.28196 3.0691199 -0.73041099 11152653
-2.2595699 3.03912 -0.72781003 10690836
-2.10162 2.99509 -0.70946503 9773828
-1.82577 2.93837 -0.67742598 9251846
-1.73236 2.90025 -0.66657698 8989184
-1.66181 2.8643501 -0.65838301 9122560
-1.5671 2.82567 -0.64738297 9265666
-1.4476399 2.78406 -0.63350803 9203733
-1.4476399 2.7553501 -0.63350803 9269775
-1.42361 2.7239599 -0.63071603 9598989
-1.42361 2.69522 -0.63071603 9337353
-1.42361 2.6664801 -0.63071603 9795868
-1.39952 2.6349699 -0.62791902 9798438
-1.3753901 2.6034 -0.62511599 10191921
-1.42361 2.5802701 -0.63071603 10191657
-1.3753901 2.54581 -0.62511599 10324008
-1.42361 2.5228 -0.63071603 10191399
-1.42361 2.49406 -0.63071603 10126368
-1.39952 2.4623699 -0.62791902 10125107
-1.3753901 2.43062 -0.62511599 10124845
-1.4476399 2.41084 -0.63350803 9730853
-1.4476399 2.3821399 -0.63350803 10058278
-1.4476399 2.35343 -0.63350803 10058531
-1.47163 2.3278 -0.63629401 9795632
-1.51946 2.30531 -0.64184999 9728805
-1.5433 2.27981 -0.64461899 9598232
-1.6382101 2.2637401 -0.65564197 9530901
-1.66181 2.2384 -0.65838301 9530894
-1.66181 2.20995 -0.65838301 9729034
-1.68538 2.18469 -0.66112 9793039
-1.73236 2.1626899 -0.66657698 9137430
-1.75578 2.1375599 -0.66929698 9137941
-1.82577 2.1189599 -0.67742598 9137688
-1.87219 2.0972199 -0.682818 9595409
-1.849 2.0657301 -0.680125 9334559
-1.9414901 2.05071 -0.69086701 9333523
-1.9645 2.0258999 -0.69353998 9333270
-1.9414901 1.99447 -0.69086701 9268504
-1.98747 1.9730901 -0.69620699 9137431
-2.0560901 1.95515 -0.70417702 8876056
-2.0788801 1.93056 -0.706824 8875543
-2.0560901 1.8991899 -0.70417702 8941344
-2.14697 1.88494 -0.714733 9202190
-2.16958 1.86052 -0.71735799 9202204
-2.12431 1.82572 -0.71210098 9334557
-2.16958 1.80483 -0.71735799 9335575
-2.2146599 1.7840199 -0.72259498 8875803
-2.2146599 1.75623 -0.72259498 9007137
-2.2371399 1.732 -0.725205 9006888
-2.2595699 1.70781 -0.72781003 9006878
-2.2595699 1.6800801 -0.72781003 8810271
-2.3043101 1.65958 -0.733006 8941588
-2.28196 1.62826 -0.73041099 9270045
-2.3043101 1.60422 -0.733006 9137954
-2.28196 1.57284 -0.73041099 9007658
-2.34887 1.55628 -0.73818302 8548124
-2.34887 1.5286601 -0.73818302 8680217
-2.3266101 1.49726 -0.73559701 8548120
-2.34887 1.4734 -0.73818302 8812832
-2.3266101 1.44195 -0.73559701 8809761
-2.3710899 1.42198 -0.74076301 8810263
-2.3710899 1.39438 -0.74076301 8810263
-2.34887 1.36288 -0.73818302 8678942
-2.3710899 1.33917 -0.74076301 8547103
-2.34887 1.3076299 -0.73818302 8414502
-2.34887 1.28 -0.73818302 7891236
-2.34887 1.25237 -0.73818302 7693352
-2.34887 1.22474 -0.73818302 7232034
-2.3043101 1.18899 -0.733006 6508565
-2.3043101 1.16131 -0.733006 4403731
-2.28196 1.1295 -0.73041099 3485213
-2.2595699 1.09763 -0.72781003 3353879
-2.28196 1.07408 -0.73041099 3158290
-2.3043101 1.05058 -0.733006 4273939
-2.3266101 1.02712 -0.73559701 6443022
-2.3710899 1.0079499 -0.74076301 7560980
-2.34887 0.97608203 -0.73818302 7888148
-2.3710899 0.95274299 -0.74076301 7033110
-2.34887 0.920825 -0.73818302 8089638
-2.3266101 0.88884503 -0.73559701 7299357
-2.34887 0.86556703 -0.73818302 7299353
-2.34887 0.83793902 -0.73818302 7955735
-2.34887 0.81031001 -0.73818302 7627028
-2.3266101 0.77822399 -0.73559701 7495958
-2.3266101 0.75056797 -0.73559701 7822104
-2.34887 0.72742403 -0.73818302 7954191
-2.3266101 0.69525701 -0.73559701 8019217
-2.3043101 0.663028 -0.733006 7888401
-2.28196 0.63073802 -0.73041099 7888147
-2.2371399 0.59372997 -0.725205 8084500
-2.2595699 0.57064801 -0.72781003 8216086
-2.2146599 0.53348798 -0.72259498 7953952
-2.1921401 0.50094599 -0.71997899 7887897
-2.16958 0.46834001 -0.71735799 7822868
-2.1921401 0.44531301 -0.71997899 7952408
-0.77022201 5.0718699 -0.57134598 6966804
-0.84589797 5.0434599 -0.58164603 7165973
-0.99585998 5.0164099 -0.60205501 6839324
-1.09482 4.9888501 -0.61552203 7561999
-1.16851 4.9610701 -0.62555099 7563796
-1.19297 4.9325199 -0.62888098 8089622
-1.24176 4.90452 -0.63551998 8813083
-1.2903399 4.8766398 -0.64213097 8878124
-1.36285 4.8494201 -0.651999 8878374
-1.36285 4.8206301 -0.651999 9010726
-1.36285 4.7918301 -0.651999 9207338
-1.38692 4.76368 -0.655276 9731873
-1.38692 4.73491 -0.655276 9796143
-1.4109499 4.70684 -0.65854502 9536561
-1.48273 4.6802702 -0.66831499 9208882
-1.48273 4.6516199 -0.66831499 9273387
-1.53035 4.6245198 -0.67479599 9207840
-1.53035 4.5959201 -0.67479599 9537319
-1.55409 4.5681601 -0.67802602 9207848
-1.55409 4.5395899 -0.67802602 9273891
-1.57778 4.51191 -0.68124998 9339939
-1.57778 4.4833798 -0.68124998 9471019
-1.60142 4.45578 -0.68446797 9208366
-1.62502 4.4282398 -0.68767899 9207597
-1.6485699 4.4007502 -0.69088399 9273390
-1.6485699 4.3723001 -0.69088399 9208617
-1.6485699 4.3438501 -0.69088399 8880175
-1.67207 4.3164701 -0.69408298 8945714
-1.71894 4.2902498 -0.70046097 9142055
-1.71894 4.2618799 -0.70046097 8815135
-1.71894 4.23352 -0.70046097 8814636
-1.6955301 4.20397 -0.69727498 8616507
-1.71894 4.1767802 -0.70046097 8683067
-1.7423 4.1496501 -0.703641 8682047
-1.76562 4.1225801 -0.70681399 8682296
-1.76562 4.0942702 -0.70681399 8550459
-1.76562 4.0659499 -0.70681399 8616500
-1.7423 4.0363002 -0.703641 8288844
-1.78889 4.0107002 -0.70998102 9140536
-1.78889 3.98242 -0.70998102 9141562
-1.83529 3.95699 -0.71629697 9273905
-1.85843 3.9302101 -0.71944499 9468714
-1.83529 3.9005301 -0.71629697 9469234
-1.83529 3.8722999 -0.71629697 9469755
-1.83529 3.84408 -0.71629697 9535550
-1.85843 3.81741 -0.71944499 9336884
-1.88152 3.7907901 -0.72258699 9596972
-1.88152 3.76262 -0.72258699 8807447
-1.85843 3.73281 -0.71944499 9459485
-1.92756 3.7096 -0.72885299 9316103
-1.95051 3.6831701 -0.73197597 9772807
-1.97342 3.65679 -0.73509401 10099969
-2.0418701 3.63392 -0.74440998 9836544
-2.08728 3.6094401 -0.75059098 9900801
-2.13252 3.5850501 -0.75674802 9900546
-2.2000501 3.5625401 -0.76593798 9246979
-2.22247 3.5365601 -0.76898903 9574403
-2.28947 3.5142801 -0.77810699 9772288
-2.3117199 3.4884501 -0.78113502 10099457
-2.3782101 3.4663899 -0.79018402 9899267
-2.3782101 3.4388199 -0.79018402 10097670
-2.4223199 3.41506 -0.796188 10950916
-2.4223199 3.3875401 -0.796188 11019785
-2.44432 3.36198 -0.79918098 11150359
-2.44432 3.33448 -0.79918098 12001038
-2.4223199 3.30497 -0.796188 9506305
-2.4223199 3.2774501 -0.796188 10162696
-2.40029 3.24786 -0.79318798 10293250
-2.3782101 3.21821 -0.79018402 10556928
-2.33393 3.1863799 -0.78415799 11017491
-2.28947 3.1544199 -0.77810699 11216665
-2.28947 3.12673 -0.77810699 10823190
-2.26718 3.0968299 -0.77507401 11283485
-2.22247 3.0646 -0.76898903 10561805
-2.2000501 3.0345399 -0.76593798 9508096
-1.95051 2.9809401 -0.73197597 9577476
-1.8121099 2.93837 -0.71314102 9513473
-1.7423 2.90272 -0.703641 9447936
-1.62502 2.86182 -0.68767899 8995076
-1.48273 2.81794 -0.66831499 9266183
-1.43492 2.78406 -0.66180801 9138184
-1.45885 2.7579999 -0.66506499 9270031
-1.4109499 2.7239599 -0.65854502 9729808
-1.38692 2.6925001 -0.655276 9861394
-1.4109499 2.6664801 -0.65854502 9796111
-1.4109499 2.6377399 -0.65854502 9861924
-1.4109499 2.60901 -0.65854502 10059306
-1.38692 2.57744 -0.655276 10388016
-1.4109499 2.5515299 -0.65854502 9863980
-1.36285 2.51701 -0.651999 10388019
-1.38692 2.4911399 -0.655276 10716966
-1.36285 2.45942 -0.651999 10321451
-1.38692 2.43361 -0.655276 9731875
-1.43492 2.41084 -0.66180801 9927958
-1.43492 2.3821399 -0.66180801 9730593
-1.43492 2.35343 -0.66180801 9730593
-1.48273 2.3308699 -0.66831499 9598233
-1.50657 2.30531 -0.67155898 9336600
-1.55409 2.2829199 -0.67802602 9467156
-1.62502 2.2637401 -0.68767899 9465101
-1.62502 2.23526 -0.68767899 9596689
-1.6485699 2.20995 -0.69088399 9464593
-1.67207 2.18469 -0.69408298 9728021
-1.6955301 2.1594801 -0.69727498 9595146
-1.76562 2.14078 -0.70681399 9464593
-1.78889 2.11572 -0.70998102 9465108
-1.78889 2.08743 -0.70998102 9202973
-1.90456 2.0755601 -0.72572303 9464598
-1.90456 2.04742 -0.72572303 9136922
-1.97342 2.0292101 -0.73509401 8872987
-1.95051 1.99781 -0.73197597 9200925
-1.97342 1.9730901 -0.73509401 9005599
-2.0191 1.95178 -0.74131101 8941334
-2.0191 1.92377 -0.74131101 9138966
-2.0418701 1.8991899 -0.74440998 9007887
-2.10992 1.88152 -0.753672 9532694
-2.10992 1.8536201 -0.753672 9137941
-2.13252 1.8292 -0.75674802 9202200
-2.1775801 1.80832 -0.76288003 9267477
-2.1550701 1.7769901 -0.759817 9137435
-2.2000501 1.75623 -0.76593798 9006876
-2.2000501 1.72844 -0.76593798 9202973
-2.2448499 1.70781 -0.77203399 9202464
-2.2448499 1.6800801 -0.77203399 9007138
-2.26718 1.65597 -0.77507401 8810525
-2.26718 1.62826 -0.77507401 8876056
-2.28947 1.60422 -0.77810699 8809243
-2.26718 1.57284 -0.77507401 8679446
-2.3117199 1.55257 -0.78113502 8875288
-2.3117199 1.52492 -0.78113502 8875552
-2.3560901 1.5047801 -0.78717399 8809241
-2.3117199 1.46961 -0.78113502 8875290
-2.33393 1.44577 -0.78415799 8874782
-2.3117199 1.4143 -0.78113502 8678691
-2.33393 1.39051 -0.78415799 8678691
-2.33393 1.36288 -0.78415799 8087831
-2.33393 1.33525 -0.78415799 8219412
-2.33393 1.3076299 -0.78415799 8220697
-2.33393 1.28 -0.78415799 8021026
-2.33393 1.25237 -0.78415799 7824160
-2.33393 1.22474 -0.78415799 7364103
-2.33393 1.1971101 -0.78415799 6638102
-2.28947 1.16131 -0.77810699 3879690
-2.2448499 1.12536 -0.77203399 3355407
-2.2000501 1.0614901 -0.76593798 5324833
-2.2000501 1.0337 -0.76593798 6177807
-2.26718 1.0186599 -0.77507401 6378512
-2.3117199 0.999466 -0.78113502 7628823
-2.33393 0.97608203 -0.78415799 7299603
-2.3560901 0.95274299 -0.78717399 7495440
-2.3560901 0.92514098 -0.78717399 7494410
-2.33393 0.89319599 -0.78415799 7887897
-2.33393 0.86556703 -0.78415799 7953173
