# .PCD v0.7 - Point Cloud Data file format
VERSION 0.7
FIELDS x y z rgb
SIZE 4 4 4 4
TYPE F F F F
COUNT 1 1 1 1
WIDTH 1162
HEIGHT 1
VIEWPOINT 0 0 0 1 0 0 0
POINTS 1162
DATA ascii
-0.46876544 0.45266318 0.93685478 9514275
-0.46876544 0.37728858 0.93685478 10300714
-0.46876544 0.30191398 0.93685478 10376276
-0.44181028 0.21674347 0.86295289 7700102
-0.45081326 0.14449382 0.88763517 7900560
-0.49556315 0.085967302 1.0103259 9083045
-0.49556315 0.010812283 1.0103259 9411753
-0.13511299 7.9944744 0.016267484 9210501
-0.19740736 7.812562 0.17170821 12034212
-0.20771685 7.7307463 0.19743325 12743525
-0.20771685 7.6531811 0.19743325 13811638
-0.21800591 7.5716066 0.22310694 12369848
-0.22827411 7.4901953 0.24872907 11906478
-0.22827411 7.4127846 0.24872907 12236472
-0.23852213 7.331614 0.27430025 11903384
-0.24874963 7.2506046 0.29982024 11180692
-0.24874963 7.1733494 0.29982024 10986143
-0.24874963 7.0960946 0.29982024 10385779
-0.24874963 7.0188389 0.29982024 11179662
-0.24874963 6.9415836 0.29982024 9800586
-0.24874963 6.8643284 0.29982024 8480613
-0.24874963 6.7870731 0.29982024 8087390
-0.33988583 6.6818657 0.52722842 8161670
-0.35991848 6.5993061 0.57721502 8162948
-0.38981915 6.5141702 0.65182543 7306112
-0.40965509 6.4323449 0.7013213 8159877
-0.40965509 6.3563042 0.7013213 7896957
-0.4195444 6.2776031 0.72599685 8290165
-0.42941368 6.1990566 0.75062364 11775847
-0.42941368 6.1231651 0.75062364 11447631
-0.4195444 6.0497036 0.72599685 7434802
-0.39974672 5.9784646 0.67659742 263424
-0.39974672 5.902349 0.67659742 512
-0.40965509 5.8240166 0.7013213 1447442
-0.40965509 5.7479753 0.7013213 1249549
-0.40965509 5.6719341 0.7013213 1446418
-0.40965509 5.5958929 0.7013213 593157
-0.39974672 5.5217695 0.67659742 459776
-0.39974672 5.4456539 0.67659742 263168
-0.43926322 5.3624878 0.77520162 7369023
-0.43926322 5.2866697 0.77520162 11842890
-0.43926322 5.2108526 0.77520162 11646532
-0.43926322 5.135035 0.77520162 10001273
-0.43926322 5.0592175 0.77520162 12040530
-0.44909406 4.982017 0.79973227 10917184
-0.44909406 4.9062729 0.79973227 11764038
-0.44909406 4.8305297 0.79973227 12816718
-0.44909406 4.7547865 0.79973227 12562262
-0.44909406 4.6790433 0.79973227 8677403
-0.44909406 4.6032996 0.79973227 7949329
-0.44909406 4.5275559 0.79973227 8545823
-0.44909406 4.4518127 0.79973227 12430159
-0.44909406 4.3760695 0.79973227 11777615
-0.44909406 4.3003259 0.79973227 12171110
-0.42941368 4.2258663 0.75062364 791552
-0.43926322 4.0735888 0.77520162 9607833
-0.44909406 3.9973526 0.79973227 9675159
-0.44909406 3.9216089 0.79973227 9609114
-0.43926322 3.8461359 0.77520162 10267559
-0.44909406 3.7701223 0.79973227 2241593
-0.44909406 3.6943789 0.79973227 2437426
-0.44909406 3.6186354 0.79973227 5462102
-0.45890582 3.5429184 0.82421482 9807263
-0.44909406 3.4671485 0.79973227 9807004
-0.43926322 3.3912301 0.77520162 925213
-0.44909406 3.3156614 0.79973227 8620678
-0.44909406 3.2399182 0.79973227 8357762
-0.45890582 3.1645715 0.82421482 9804443
-0.45890582 3.088902 0.82421482 9279639
-0.46869829 3.0137763 0.84864944 9192005
-0.46869829 2.9381809 0.84864944 10432017
-0.46869829 2.8625855 0.84864944 10628633
-0.46869829 2.7869902 0.84864944 10498071
-0.46869829 2.7113945 0.84864944 11373186
-0.46869829 2.6357989 0.84864944 11503746
-0.46869829 2.5602036 0.84864944 9526624
-0.46869829 2.4846082 0.84864944 10694414
-0.46869829 2.4090128 0.84864944 9713452
-0.46869829 2.3334172 0.84864944 10781048
-0.46869829 2.2578218 0.84864944 10981003
-0.46869829 2.1822262 0.84864944 10583938
-0.46869829 2.1066308 0.84864944 9781032
-0.47847214 2.0325367 0.8730368 10369337
-0.47847214 1.957015 0.8730368 10498588
-0.47847214 1.8814934 0.8730368 10562084
-0.47847214 1.8059717 0.8730368 10432057
-0.47847214 1.7304502 0.8730368 10366759
-0.47847214 1.6549283 0.8730368 10628126
-0.48822585 1.5813465 0.89737582 10954266
-0.48822585 1.5058985 0.89737582 10432526
-0.48822585 1.4304504 0.89737582 10693674
-0.48822585 1.3550022 0.89737582 10563111
-0.48822585 1.2795541 0.89737582 10695700
-0.48822585 1.2041059 0.89737582 10495527
-0.48822585 1.1286578 0.89737582 9974563
-0.46869829 1.0482938 0.84864944 2823698
-0.47847214 0.89971113 0.8730368 9543314
-0.47847214 0.82418942 0.8730368 13489112
-0.47847214 0.74866772 0.8730368 13883870
-0.47847214 0.67314577 0.8730368 16120051
-0.47847214 0.59762406 0.8730368 14411247
-0.48822585 0.52507281 0.89737582 1183777
-0.49796146 0.45266318 0.92166817 9447194
-0.49796146 0.37728858 0.92166817 9972782
-0.49796146 0.30191398 0.92166817 10702686
-0.46869829 0.21674347 0.84864944 7634054
-0.51737529 0.08258152 0.97011054 9214632
-0.52705377 0.010812283 0.99426132 9216686
-0.13555729 7.9944744 0.012015485 9341059
-0.16923186 7.903244 0.088950753 10054248
-0.19156857 7.8168221 0.13998322 12102038
-0.20270345 7.7349195 0.16542277 12873834
-0.21381591 7.6531811 0.19081128 14139075
-0.2249063 7.5716066 0.21614912 12106420
-0.24702039 7.4862785 0.26667273 11839137
-0.23597424 7.4127846 0.24143605 12498095
-0.23597424 7.3353758 0.24143605 11774886
-0.24702039 7.254282 0.26667273 11181718
-0.24702039 7.1769495 0.26667273 11183775
-0.25804445 7.0960946 0.29185885 11043448
-0.25804445 7.0188389 0.29185885 10194049
-0.25804445 6.9415836 0.29185885 11578538
-0.25804445 6.8643284 0.29185885 9007719
-0.24702039 6.790287 0.26667273 8680815
-0.35627875 6.6818657 0.51629215 8685195
-0.38863611 6.5963192 0.59021813 8162443
-0.41010115 6.5141702 0.63925928 7240832
-0.43148202 6.4323449 0.68810767 7700864
-0.44214147 6.353569 0.71246034 8028284
-0.44214147 6.2776031 0.71246034 8685662
-0.45277944 6.1990566 0.73676509 11448171
-0.45277944 6.1231651 0.73676509 11447634
-0.44214147 6.0497036 0.71246034 7170848
-0.44214147 5.9737372 0.71246034 788992
-0.43148202 5.9000578 0.68810767 396032
-0.44214147 5.821804 0.71246034 857102
-0.43148202 5.7479753 0.68810767 1644305
-0.43148202 5.6719341 0.68810767 1645595
-0.43148202 5.5958929 0.68810767 768
-0.44214147 5.5179386 0.71246034 197888
-0.44214147 5.4419723 0.71246034 131840
-0.45277944 5.3642454 0.73676509 7566390
-0.46339616 5.2866697 0.76102155 11908429
-0.46339616 5.2108526 0.76102155 11578958
-0.46339616 5.135035 0.76102155 9804150
-0.46339616 5.0592175 0.76102155 11973709
-0.47399271 4.982017 0.78523129 10524729
-0.47399271 4.9062729 0.78523129 10183988
-0.47399271 4.8305297 0.78523129 8933141
-0.47399271 4.7547865 0.78523129 11774030
-0.47399271 4.6790433 0.78523129 9995322
-0.46339616 4.6043119 0.76102155 12557140
-0.47399271 4.5275559 0.78523129 9203512
-0.47399271 4.4518127 0.78523129 12494928
-0.47399271 4.3760695 0.78523129 11843158
-0.47399271 4.3003259 0.78523129 12368216
-0.46339616 4.2252235 0.76102155 855552
-0.45277944 4.1499739 0.73676509 1119248
-0.47399271 4.0730963 0.78523129 8621191
-0.47399271 3.9973526 0.78523129 9215385
-0.47399271 3.9216089 0.78523129 9215385
-0.46339616 3.8461359 0.76102155 5330264
-0.45277944 3.7705147 0.73676509 1778988
-0.46339616 3.6945004 0.76102155 4083284
-0.46339616 3.6186831 0.76102155 3620927
-0.4845686 3.5429184 0.80939353 9740184
-0.4845686 3.4672492 0.80939353 9411216
-0.47399271 3.3914051 0.78523129 3092
-0.4845686 3.3159101 0.80939353 2833201
-0.49512377 3.2405629 0.83350855 9410982
-0.49512377 3.1649675 0.83350855 8621181
-0.4845686 3.088902 0.80939353 9345432
-0.49512377 3.0137763 0.83350855 8865349
-0.49512377 2.9381809 0.83350855 10169624
-0.49512377 2.8625855 0.83350855 10563602
-0.49512377 2.7869902 0.83350855 10891800
-0.49512377 2.7113945 0.83350855 10913159
-0.49512377 2.6357989 0.83350855 10650239
-0.49512377 2.5602036 0.83350855 9525597
-0.49512377 2.4846082 0.83350855 10105375
-0.49512377 2.4090128 0.83350855 8529699
-0.49512377 2.3334172 0.83350855 9005159
-0.49512377 2.2578218 0.83350855 10715519
-0.49512377 2.1822262 0.83350855 10517632
-0.50565881 2.1080585 0.85757685 9715254
-0.50565881 2.0325367 0.85757685 10696481
-0.50565881 1.957015 0.85757685 10759964
-0.50565881 1.8814934 0.85757685 10499625
-0.50565881 1.8059717 0.85757685 10301983
-0.51617217 1.7322429 0.88159746 10430499
-0.51617217 1.6567947 0.88159746 10629383
-0.51617217 1.5813465 0.88159746 10365725
-0.51617217 1.5058985 0.88159746 10563109
-0.51617217 1.4304504 0.88159746 10368000
-0.51617217 1.3550022 0.88159746 10106384
-0.51617217 1.2795541 0.88159746 10625304
-0.51617217 1.2041059 0.88159746 10564622
-0.51617217 1.1286578 0.88159746 9843227
-0.4845686 1.0458291 0.80939353 1905169
-0.4845686 0.97015977 0.80939353 1447462
-0.49512377 0.89710307 0.83350855 12963278
-0.50565881 0.82418942 0.85757685 12437706
-0.50565881 0.74866772 0.85757685 11514807
-0.51617217 0.67596912 0.88159746 12502209
-0.50565881 0.59762406 0.85757685 12568523
-0.51617217 0.52507281 0.88159746 1513510
-0.52666605 0.45266318 0.90557206 9647392
-0.537139 0.38039422 0.92949963 10564932
-0.52666605 0.30191398 0.90557206 10308687
-0.50565881 0.22001553 0.85757685 7830912
-0.54759187 0.08258152 0.95338064 9018282
-0.55802417 0.010812283 0.97721559 9413549
-0.13586782 7.9944744 0.0077515971 9079171
-0.17194235 7.903244 0.083591156 9923168
-0.195871 7.8168221 0.13389689 12362655
-0.20779943 7.7349195 0.15897413 12349801
-0.21970388 7.6531811 0.18400104 14071730
-0.23158471 7.5716066 0.20897798 11711916
-0.25527489 7.4862785 0.25878203 12034212
-0.24344148 7.4127846 0.23390478 12629926
-0.25527489 7.331614 0.25878203 11443352
-0.25527489 7.254282 0.25878203 11180437
-0.25527489 7.1769495 0.25878203 11117731
-0.26708457 7.0960946 0.28360954 10191736
-0.26708457 7.0188389 0.28360954 9997187
-0.26708457 6.9415836 0.28360954 11446432
-0.26708457 6.8643284 0.28360954 9008493
-0.26708457 6.7870731 0.28360954 8548465
-0.37231997 6.6818657 0.50484651 8752270
-0.40698341 6.5963192 0.57771963 8687505
-0.42997843 6.5141702 0.62606227 8029832
-0.45288295 6.4323449 0.67421502 7701373
-0.46430209 6.353569 0.69822091 8291461
-0.47569838 6.2749486 0.72217935 8554593
-0.47569838 6.1990566 0.72217935 11775570
-0.47569838 6.1231651 0.72217935 11119689
-0.47569838 6.0472727 0.72217935 7302951
-0.47569838 5.9713807 0.72217935 768
-0.47569838 5.8954887 0.72217935 460544
-0.46430209 5.821804 0.69822091 921867
-0.46430209 5.7458382 0.69822091 1512974
-0.45288295 5.6719341 0.67421502 1249549
-0.47569838 5.5919209 0.72217935 133379
-0.4870716 5.514123 0.74609053 393222
-0.4870716 5.4383054 0.74609053 131072
-0.4870716 5.3624878 0.74609053 6250786
-0.4870716 5.2866697 0.74609053 11842130
-0.4870716 5.2108526 0.74609053 11120981
-0.4870716 5.135035 0.74609053 9868412
-0.4870716 5.0592175 0.74609053 11908436
-0.4870716 4.9833999 0.74609053 11248467
-0.49842349 4.9062729 0.76995534 10445097
-0.49842349 4.8305297 0.76995534 8274951
-0.49842349 4.7547865 0.76995534 11379263
-0.49842349 4.6790433 0.76995534 11177275
-0.49842349 4.6032996 0.76995534 11502439
-0.49842349 4.5275559 0.76995534 12029284
-0.49842349 4.4518127 0.76995534 12428377
-0.49842349 4.3760695 0.76995534 11645268
-0.49842349 4.3003259 0.76995534 11513175
-0.49842349 4.2245827 0.76995534 395520
-0.47569838 4.1499739 0.72217935 1185036
-0.49842349 4.0730963 0.76995534 9278099
-0.49842349 3.9973526 0.76995534 9608349
-0.49842349 3.9216089 0.76995534 9476762
-0.49842349 3.8458657 0.76995534 3423544
-0.49842349 3.7701223 0.76995534 1381138
-0.49842349 3.6943789 0.76995534 1512724
-0.49842349 3.6186354 0.76995534 4077374
-0.50975317 3.5429184 0.79377347 9083283
-0.50975317 3.4672492 0.79377347 9542288
-0.49842349 3.3914051 0.76995534 2502712
-0.52106041 3.3161583 0.81754512 1778465
-0.52106041 3.2405629 0.81754512 1712932
-0.52106041 3.1649675 0.81754512 2896956
-0.50975317 3.088902 0.79377347 9146513
-0.52106041 3.0137763 0.81754512 8276551
-0.52106041 2.9381809 0.81754512 11217688
-0.52106041 2.8625855 0.81754512 10564371
-0.52106041 2.7869902 0.81754512 10562333
-0.52106041 2.7113945 0.81754512 10321018
-0.52106041 2.6357989 0.81754512 9005930
-0.52106041 2.5602036 0.81754512 8806754
-0.53234625 2.4856672 0.84127063 10564655
-0.53234625 2.4101455 0.84127063 7875345
-0.52106041 2.3334172 0.81754512 11043965
-0.53234625 2.2591021 0.84127063 10913160
-0.53234625 2.1835804 0.84127063 10453113
-0.53234625 2.1080585 0.84127063 9518136
-0.53234625 2.0325367 0.84127063 10761523
-0.5436089 1.9585871 0.86494923 10631694
-0.5436089 1.883139 0.86494923 10497815
-0.5436089 1.807691 0.86494923 10759954
-0.5436089 1.7322429 0.86494923 10562087
-0.5436089 1.6567947 0.86494923 10561051
-0.5436089 1.5813465 0.86494923 10761492
-0.5436089 1.5058985 0.86494923 10036766
-0.5436089 1.4304504 0.86494923 10367007
-0.5436089 1.3550022 0.86494923 9775391
-0.5436089 1.2795541 0.86494923 10562321
-0.5436089 1.2041059 0.86494923 10300959
-0.5436089 1.1286578 0.86494923 9841957
-0.50975317 1.0458291 0.79377347 1378590
-0.52106041 0.97269845 0.81754512 1316372
-0.53234625 0.89971113 0.84127063 10793141
-0.5436089 0.82686543 0.86494923 8161161
-0.5436089 0.7514174 0.86494923 7502730
-0.5436089 0.67596912 0.86494923 10330524
-0.53234625 0.59762406 0.84127063 12240060
-0.53234625 0.52210236 0.84127063 2367790
-0.5548507 0.45266318 0.88858235 9518349
-0.56607026 0.38039422 0.91216898 10303514
-0.56607026 0.30509305 0.91216898 10308953
-0.53234625 0.22001553 0.84127063 7501957
-0.53234625 0.14449382 0.84127063 8163466
-0.58844393 0.085967302 0.95920539 9279398
-0.59959823 0.014264584 0.98265511 9148839
-0.12317953 7.9989443 -0.021510161 8815745
-0.17448318 7.903244 0.078149073 10055031
-0.19998014 7.8168221 0.12767835 12691110
-0.21269041 7.7349195 0.15236853 13400680
-0.21269041 7.6572762 0.15236853 13019051
-0.22537507 7.5756168 0.1770092 12758958
-0.2506685 7.4901953 0.22614269 11247253
-0.2632775 7.408946 0.25063595 12102822
-0.23803461 7.3391447 0.20160063 12826795
-0.2632775 7.254282 0.25063595 11050392
-0.2506685 7.1805563 0.22614269 11249564
-0.2632775 7.099617 0.25063595 10456189
-0.2632775 7.0222845 0.25063595 10785419
-0.2632775 6.944952 0.25063595 11117976
-0.27586117 6.8643284 0.27508026 9336696
-0.2632775 6.790287 0.25063595 9140858
-0.38799387 6.6818657 0.49290252 8950153
-0.4249292 6.5963192 0.56465089 9148309
-0.44943136 6.5141702 0.61224741 8229006
-0.47383705 6.4323449 0.65965694 7963773
-0.48600468 6.353569 0.68329233 8030591
-0.49814788 6.2749486 0.70688093 8753254
-0.49814788 6.1990566 0.70688093 11186266
-0.49814788 6.1231651 0.70688093 11512924
-0.49814788 6.0472727 0.70688093 6580254
-0.51026654 5.9690285 0.73042309 0
-0.51026654 5.8932114 0.73042309 197120
-0.49814788 5.8195968 0.70688093 460554
-0.47383705 5.7479753 0.65965694 1710089
-0.47383705 5.6719341 0.65965694 1971736
-0.49814788 5.5919209 0.70688093 859144
-0.51026654 5.514123 0.73042309 591872
-0.52236247 5.4364772 0.75391954 460800
-0.52236247 5.360734 0.75391954 5657864
-0.51026654 5.2866697 0.73042309 11907666
-0.51026654 5.2108526 0.73042309 11382860
-0.52236247 5.1335034 0.75391954 9671535
-0.52236247 5.0577602 0.75391954 11513928
-0.52236247 4.982017 0.75391954 11511631
-0.52236247 4.9062729 0.75391954 10842673
-0.52236247 4.8305297 0.75391954 10252588
-0.52236247 4.7547865 0.75391954 12169030
-0.52236247 4.6790433 0.75391954 11309613
-0.52236247 4.6032996 0.75391954 12161862
-0.52236247 4.5275559 0.75391954 13740397
-0.53443468 4.4509506 0.7773701 11771475
-0.52236247 4.3760695 0.75391954 11972946
-0.53443468 4.299612 0.7773701 11250252
-0.52236247 4.2245827 0.75391954 197888
-0.49814788 4.1499739 0.70688093 1118994
-0.52236247 4.0730963 0.75391954 9673373
-0.53443468 3.9969349 0.7773701 9609623
-0.52236247 3.9216089 0.75391954 9609629
-0.53443468 3.8455958 0.7773701 264968
-0.53443468 3.7699265 0.7773701 591366
-0.53443468 3.6942573 0.7773701 724489
-0.53443468 3.618588 0.7773701 3026990
-0.53443468 3.5429184 0.7773701 8688016
-0.53443468 3.4672492 0.7773701 9608339
-0.53443468 3.3915796 0.7773701 4214099
-0.53443468 3.3159101 0.7773701 10199968
-0.53443468 3.2402408 0.7773701 10529447
-0.53443468 3.1645715 0.7773701 9279379
-0.53443468 3.088902 0.7773701 9214095
-0.54648304 3.0137763 0.80077487 8474185
-0.54648304 2.9381809 0.80077487 10892050
-0.55850852 2.8632758 0.82413411 10564102
-0.54648304 2.7869902 0.80077487 11155234
-0.54648304 2.7113945 0.80077487 10192006
-0.54648304 2.6357989 0.80077487 9533813
-0.55850852 2.5611887 0.82413411 9200993
-0.55850852 2.4856672 0.82413411 9976353
-0.55850852 2.4101455 0.82413411 6104855
-0.55850852 2.3346238 0.82413411 11504791
-0.55850852 2.2591021 0.82413411 10780034
-0.55850852 2.1835804 0.82413411 10517374
-0.55850852 2.1080585 0.82413411 9780530
-0.57050937 2.0340352 0.84744722 10367519
-0.57050937 1.9585871 0.84744722 10368284
-0.57050937 1.883139 0.84744722 10758943
-0.57050937 1.807691 0.84744722 10694691
-0.57050937 1.7322429 0.84744722 10495274
-0.57050937 1.6567947 0.84744722 10629149
-0.57050937 1.5813465 0.84744722 10562340
-0.57050937 1.5058985 0.84744722 11020835
-0.57050937 1.4304504 0.84744722 10497049
-0.57050937 1.3550022 0.84744722 10103327
-0.57050937 1.2795541 0.84744722 10431000
-0.57050937 1.2041059 0.84744722 10889254
-0.57050937 1.1286578 0.84744722 8662052
-0.55850852 0.89971113 0.82413411 14608620
-0.57050937 0.82686543 0.84744722 3357500
-0.57050937 0.7514174 0.84744722 5593949
-0.57050937 0.67596912 0.84744722 8421246
-0.57050937 0.60052085 0.84744722 14541281
-0.59444284 0.45569563 0.89393818 9122839
-0.59444284 0.38039422 0.89393818 10760226
-0.59444284 0.30509305 0.89393818 10569304
-0.57050937 0.22328019 0.84744722 7568508
-0.61828297 0.085967302 0.94024855 9345960
-0.61828297 0.010812283 0.94024855 9281960
-0.1224431 7.9989443 -0.025368711 8749691
-0.17685181 7.903244 0.072629854 10448492
-0.20389195 7.8168221 0.12133382 12625315
-0.20389195 7.7391014 0.12133382 13402224
-0.21737146 7.6572762 0.14561258 13280937
-0.24424958 7.5716066 0.19402429 12233639
-0.27102026 7.4862785 0.24224253 11508379
-0.27102026 7.408946 0.24224253 12299177
-0.24424958 7.3391447 0.19402429 12103336
-0.27102026 7.254282 0.24224253 11312791
-0.25764811 7.1805563 0.21815741 11118756
-0.27102026 7.099617 0.24224253 10850173
-0.27102026 7.0222845 0.24224253 10456712
-0.28436556 6.9415836 0.26627952 11117468
-0.28436556 6.8643284 0.26627952 9206387
-0.29768395 6.783865 0.29026839 8548189
-0.40328485 6.6818657 0.48047215 9213323
-0.45546108 6.5933371 0.57444966 8884626
-0.48139462 6.5112753 0.62116081 8490637
-0.49432358 6.4323449 0.64444786 8030089
-0.5072276 6.353569 0.66768932 8423558
-0.52010578 6.2749486 0.69088495 9344618
-0.53295791 6.1964817 0.7140348 11578440
-0.53295791 6.1206641 0.7140348 11315532
-0.53295791 6.0448465 0.7140348 6577432
-0.53295791 5.9690285 0.7140348 459264
-0.53295791 5.8932114 0.7140348 526592
-0.5072276 5.821804 0.66768932 2237222
-0.5072276 5.7458382 0.66768932 1380374
-0.5072276 5.6698713 0.66768932 1446672
-0.53295791 5.5899401 0.7140348 1775635
-0.5457859 5.5122204 0.7371397 987648
-0.5457859 5.4364772 0.7371397 264704
-0.53295791 5.3624878 0.7140348 9014089
-0.53295791 5.2866697 0.7140348 12038744
-0.53295791 5.2108526 0.7140348 11580750
-0.5457859 5.1335034 0.7371397 9539448
-0.5457859 5.0577602 0.7371397 11775818
-0.5457859 4.982017 0.7371397 11444534
-0.5457859 4.9062729 0.7371397 10316087
-0.5457859 4.8305297 0.7371397 12356936
-0.5457859 4.7547865 0.7371397 12104015
-0.5585888 4.677959 0.76019949 10980652
-0.5585888 4.6022897 0.76019949 10909517
-0.5585888 4.5266199 0.76019949 12951382
-0.5585888 4.4509506 0.76019949 11902534
-0.5585888 4.3752813 0.76019949 11513437
-0.5585888 4.299612 0.76019949 11513171
-0.5457859 4.2245827 0.7371397 2169856
-0.53295791 4.149406 0.7140348 725266
-0.5457859 4.0730963 0.7371397 9080983
-0.5585888 3.9969349 0.76019949 9347218
-0.5585888 3.9212651 0.76019949 9345170
-0.5585888 3.8455958 0.76019949 1976104
-0.5457859 3.7701223 0.7371397 9148054
-0.5457859 3.6943789 0.7371397 8292741
-0.5457859 3.6186354 0.7371397 8819855
-0.5585888 3.5429184 0.76019949 9215896
-0.5585888 3.4672492 0.76019949 9672847
-0.5585888 3.3915796 0.76019949 6649204
-0.5585888 3.3159101 0.76019949 10265505
-0.5585888 3.2402408 0.76019949 10135456
-0.5585888 3.1645715 0.76019949 9543069
-0.5585888 3.088902 0.76019949 9870757
-0.57136631 3.0137763 0.78321427 8541004
-0.57136631 2.9381809 0.78321427 10692387
-0.58411962 2.8632758 0.80618429 10824984
-0.57136631 2.7869902 0.78321427 10105900
-0.57136631 2.7113945 0.78321427 9994622
-0.58411962 2.6367106 0.80618429 9600632
-0.58411962 2.5611887 0.80618429 9730671
-0.58411962 2.4856672 0.80618429 10435373
-0.58411962 2.4101455 0.80618429 10646898
-0.58411962 2.3346238 0.80618429 12098722
-0.58411962 2.2591021 0.80618429 10583169
-0.58411962 2.1835804 0.80618429 10647932
-0.59684688 2.1094832 0.82910895 9715254
-0.59684688 2.0340352 0.82910895 10826004
-0.59684688 1.9585871 0.82910895 10628379
-0.59684688 1.883139 0.82910895 10432282
-0.59684688 1.807691 0.82910895 11153704
-0.59684688 1.7322429 0.82910895 10562073
-0.59684688 1.6567947 0.82910895 10430761
-0.59684688 1.5813465 0.82910895 11216669
-0.59684688 1.5058985 0.82910895 11022355
-0.59684688 1.4304504 0.82910895 10237208
-0.59684688 1.3550022 0.82910895 10957598
-0.60955042 1.2817843 0.85198951 10760710
-0.60955042 1.2064097 0.85198951 10105368
-0.59684688 1.1286578 0.82910895 6892583
-0.5585888 1.0458291 0.76019949 1842476
-0.57136631 0.97269845 0.78321427 592393
-0.58411962 0.89971113 0.80618429 10264744
-0.59684688 0.82686543 0.82910895 12107971
-0.59684688 0.7514174 0.82910895 11978177
-0.58411962 0.67314577 0.80618429 791576
-0.57136631 0.51912546 0.78321427 1315355
-0.62222886 0.45569563 0.87482518 9122085
-0.62222886 0.38039422 0.87482518 10104880
-0.62222886 0.30509305 0.87482518 9915460
-0.58411962 0.22001553 0.80618429 7895937
-0.57136631 0.14114809 0.78321427 8161940
-0.64751184 0.085967302 0.9203639 9149348
-0.66011643 0.014264584 0.94306695 9412523
-0.12158583 7.9989443 -0.029202195 8946302
-0.17904589 7.903244 0.067039005 9793899
-0.221838 7.7349195 0.13871291 13268590
-0.23604485 7.6531811 0.16250849 13478559
-0.25022352 7.5716066 0.18625648 12037286
-0.26437348 7.4901953 0.20995682 11770768
-0.27849555 7.408946 0.23361005 11968924
-0.26437348 7.3353758 0.20995682 11641242
-0.26437348 7.257966 0.20995682 11312534
-0.26437348 7.1805563 0.20995682 11117471
-0.26437348 7.1031466 0.20995682 10460297
-0.26437348 7.0257368 0.20995682 10196622
-0.27849555 6.944952 0.23361005 10394003
-0.27849555 6.8676195 0.23361005 9731701
-0.27849555 6.790287 0.23361005 9141106
-0.43199384 6.678791 0.49070889 8490890
-0.45954543 6.5963192 0.5368551 8885138
-0.50066823 6.5112753 0.60573334 9015957
-0.51432228 6.4323449 0.62860274 7832443
-0.52794993 6.353569 0.65142745 8489611
-0.54155034 6.2749486 0.67420709 9213283
-0.55512327 6.1964817 0.69694179 11249487
-0.55512327 6.1206641 0.69694179 11381335
-0.55512327 6.0448465 0.69694179 9540385
-0.55512327 5.9690285 0.69694179 7698496
-0.55512327 5.8932114 0.69694179 9539164
-0.52794993 5.821804 0.65142745 2630955
-0.52794993 5.7458382 0.65142745 1446932
-0.52794993 5.6698713 0.65142745 1512982
-0.54155034 5.5919209 0.67420709 8553598
-0.54155034 5.5160289 0.67420709 13355666
-0.54155034 5.4401369 0.67420709 13026197
-0.55512327 5.3624878 0.69694179 12369275
-0.55512327 5.2866697 0.69694179 11776850
-0.55512327 5.2108526 0.69694179 11054680
-0.56867069 5.1335034 0.71963245 9737073
-0.56867069 5.0577602 0.71963245 11710537
-0.56867069 4.982017 0.71963245 11179583
-0.58219159 4.9049668 0.74227864 9656614
-0.58219159 4.8292975 0.74227864 12420936
-0.58219159 4.7536283 0.74227864 11706951
-0.58219159 4.677959 0.74227864 9732154
-0.58219159 4.6022897 0.74227864 10450998
-0.58219159 4.5266199 0.74227864 12359245
-0.58219159 4.4509506 0.74227864 11640885
-0.58219159 4.3752813 0.74227864 11907671
-0.58219159 4.299612 0.74227864 11579468
-0.56867069 4.2245827 0.71963245 4144896
-0.54155034 4.1499739 0.67420709 1644841
-0.58219159 4.0726042 0.74227864 9081483
-0.58219159 3.9969349 0.74227864 9279889
-0.58219159 3.9212651 0.74227864 9214352
-0.58219159 3.8455958 0.74227864 9803666
-0.56867069 3.7701223 0.71963245 4740958
-0.58219159 3.6942573 0.74227864 8292231
-0.58219159 3.618588 0.74227864 9804441
-0.58219159 3.5429184 0.74227864 9016209
-0.58219159 3.4672492 0.74227864 9738646
-0.58219159 3.3915796 0.74227864 8095623
-0.58219159 3.3159101 0.74227864 10134686
-0.58219159 3.2402408 0.74227864 10660264
-0.58219159 3.1645715 0.74227864 10527139
-0.59568578 3.0893719 0.76488072 9278610
-0.59568578 3.0137763 0.76488072 8409162
-0.60915428 2.9387975 0.78743881 11020314
-0.60915428 2.8632758 0.78743881 10498080
-0.60915428 2.7877541 0.78743881 11150387
-0.60915428 2.7122321 0.78743881 10257019
-0.60915428 2.6367106 0.78743881 9994622
-0.60915428 2.5611887 0.78743881 9464677
-0.60915428 2.4856672 0.78743881 10697006
-0.60915428 2.4101455 0.78743881 12353147
-0.60915428 2.3346238 0.78743881 11240835
-0.62259531 2.2603798 0.80995244 10453372
-0.62259531 2.1849313 0.80995244 9929602
-0.62259531 2.1094832 0.80995244 9584441
-0.62259531 2.0340352 0.80995244 10300452
-0.62259531 1.9585871 0.80995244 10629923
-0.62259531 1.883139 0.80995244 10234925
-0.62259531 1.807691 0.80995244 10694936
-0.62259531 1.7322429 0.80995244 10104088
-0.62259531 1.6567947 0.80995244 10432784
-0.62259531 1.5813465 0.80995244 11020316
-0.62259531 1.5058985 0.80995244 10691350
-0.62259531 1.4304504 0.80995244 10628912
-0.63601124 1.3571589 0.83242267 10365962
-0.63601124 1.2817843 0.83242267 10369038
-0.63601124 1.2064097 0.83242267 10563843
-0.62259531 1.1286578 0.80995244 6039077
-0.60915428 1.0507545 0.78743881 2105124
-0.62259531 0.97776151 0.80995244 1050113
-0.62259531 0.90231347 0.80995244 2434600
-0.62259531 0.82686543 0.80995244 7896453
-0.63601124 0.75416183 0.83242267 10595503
-0.63601124 0.67878699 0.83242267 1778985
-0.60915428 0.59762406 0.78743881 6
-0.64940071 0.45569563 0.85484886 8794147
-0.64940071 0.38039422 0.85484886 10367257
-0.64940071 0.30509305 0.85484886 10110290
-0.62259531 0.22328019 0.80995244 7962238
-0.67610168 0.085967302 0.89957088 8952482
-0.68941319 0.014264584 0.92186683 9411238
-0.10541846 8.0034227 -0.056723442 8814970
-0.16599494 7.907608 0.037855856 9923686
-0.22608562 7.7349195 0.13167638 13727342
-0.22608562 7.6572762 0.13167638 13279644
-0.24103291 7.5756168 0.15501395 13020069
-0.285696 7.4862785 0.224747 11768971
-0.285696 7.408946 0.224747 11640728
-0.27083793 7.3353758 0.20154907 11443610
-0.27083793 7.257966 0.20154907 11313564
-0.27083793 7.1805563 0.20154907 11511199
-0.27083793 7.1031466 0.20154907 10392724
-0.27083793 7.0257368 0.20154907 10000527
-0.285696 6.944952 0.224747 10066833
-0.27083793 6.8709173 0.20154907 10129284
-0.27083793 6.7935071 0.20154907 9274746
-0.4326582 6.6818657 0.45420158 8950673
-0.49063236 6.5933371 0.54471743 8818063
-0.51944774 6.5112753 0.58970809 8754073
-0.54815125 6.4295359 0.63452274 8027520
-0.56246048 6.3508406 0.65686393 8160385
-0.57674086 6.2722993 0.67916107 8950120
-0.57674086 6.1964817 0.67916107 11249746
-0.57674086 6.1206641 0.67916107 11316819
-0.57674086 6.0448465 0.67916107 11840848
-0.56246048 5.9713807 0.65686393 13094801
-0.56246048 5.8954887 0.65686393 14145447
-0.56246048 5.8195968 0.65686393 3092271
-0.54815125 5.7458382 0.63452274 986895
-0.54815125 5.6698713 0.63452274 1578264
-0.56246048 5.5919209 0.65686393 6909293
-0.56246048 5.5160289 0.65686393 12961181
-0.57674086 5.4383054 0.67916107 13618846
-0.57674086 5.3624878 0.67916107 12828294
-0.5909943 5.2849903 0.70141494 11579732
-0.5909943 5.2092466 0.70141494 11119694
-0.5909943 5.1335034 0.70141494 9737075
-0.5909943 5.0577602 0.70141494 11514451
-0.6052199 4.9806366 0.7236253 11115079
-0.6052199 4.9049668 0.7236253 7289359
-0.6052199 4.8292975 0.7236253 10449190
-0.6052199 4.7536283 0.7236253 11445320
-0.6052199 4.677959 0.7236253 9008420
-0.61941731 4.6012816 0.74579233 10977339
-0.61941731 4.5256858 0.74579233 11898426
-0.61941731 4.4500904 0.74579233 11443779
-0.6052199 4.3752813 0.7236253 11644993
-0.6052199 4.299612 0.7236253 11315527
-0.6052199 4.2239428 0.7236253 6710050
-0.56246048 4.1499739 0.65686393 1578793
-0.5909943 4.0730963 0.70141494 8158598
-0.6052199 3.9969349 0.7236253 9476750
-0.6052199 3.9212651 0.7236253 9083281
-0.6052199 3.8455958 0.7236253 9674906
-0.6052199 3.7699265 0.7236253 4867915
-0.6052199 3.6942573 0.7236253 7698812
-0.6052199 3.618588 0.7236253 5593950
-0.6052199 3.5429184 0.7236253 9345430
-0.6052199 3.4672492 0.7236253 9343881
-0.5909943 3.3914051 0.70141494 2107701
-0.6052199 3.3159101 0.7236253 10133146
-0.6052199 3.2402408 0.7236253 10725798
-0.61941731 3.1649675 0.74579233 10855845
-0.61941731 3.0893719 0.74579233 9805212
-0.63358772 3.0143192 0.76791626 7621444
-0.63358772 2.9387975 0.76791626 11348748
-0.63358772 2.8632758 0.76791626 10237232
-0.63358772 2.7877541 0.76791626 10631996
-0.63358772 2.7122321 0.76791626 9598843
-0.63358772 2.6367106 0.76791626 10783618
-0.64772934 2.5621719 0.78999656 9726572
-0.64772934 2.4867239 0.78999656 11154712
-0.64772934 2.4112759 0.78999656 12610921
-0.64772934 2.3358278 0.78999656 11829629
-0.64772934 2.2603798 0.78999656 10317680
-0.63358772 2.1835804 0.76791626 10716284
-0.64772934 2.1094832 0.78999656 9909813
-0.64772934 2.0340352 0.78999656 10629147
-0.64772934 1.9585871 0.78999656 10369091
-0.64772934 1.883139 0.78999656 10692125
-0.64772934 1.807691 0.78999656 10892078
-0.64772934 1.7322429 0.78999656 10823195
-0.64772934 1.6567947 0.78999656 10889018
-0.64772934 1.5813465 0.78999656 10695192
-0.66184449 1.5079083 0.81203431 10693649
-0.66184449 1.4325337 0.81203431 10563868
-0.66184449 1.3571589 0.81203431 10561845
-0.66184449 1.2817843 0.81203431 10889759
-0.66184449 1.2064097 0.81203431 10433304
-0.64772934 1.1286578 0.78999656 4202529
-0.64772934 1.0532095 0.78999656 723214
-0.66184449 0.98028564 0.81203431 854280
-0.66184449 0.90491104 0.81203431 1185816
-0.67593175 0.8322022 0.83402884 10133660
-0.67593175 0.75690103 0.83402884 8159113
-0.66184449 0.67878699 0.81203431 1580835
-0.64772934 0.52507281 0.78999656 1709330
-0.67593175 0.45569563 0.83402884 8858422
-0.67593175 0.38039422 0.83402884 10039578
-0.67593175 0.30509305 0.83402884 10177090
-0.64772934 0.22328019 0.78999656 8157831
-0.70402426 0.085967302 0.87789017 9215403
-0.71802956 0.014264584 0.89975691 9544106
-0.0073392428 8.1092319 -0.20036511 6380895
-0.10358471 8.0034227 -0.060006727 8289909
-0.16710211 7.907608 0.032623149 9923184
-0.2144056 7.8168221 0.1016074 12229268
-0.24578308 7.7307463 0.14736642 12481896
-0.24578308 7.6531811 0.14736642 13409176
-0.27703509 7.567605 0.19294238 12036267
-0.29261449 7.4862785 0.21566218 11571077
-0.29261449 7.408946 0.21566218 11376271
-0.29261449 7.331614 0.21566218 11836808
-0.30816266 7.2506046 0.23833659 10850695
-0.29261449 7.1769495 0.21566218 10590862
-0.27703509 7.1031466 0.19294238 9999238
-0.27703509 7.0257368 0.19294238 10262416
-0.29261449 6.944952 0.21566218 10459793
-0.29261449 6.8676195 0.21566218 9341569
-0.3391659 6.7806644 0.28354982 8155502
-0.46195328 6.678791 0.46261546 8556165
-0.50750023 6.5933371 0.52903748 8817811
-0.55277771 6.5083857 0.5950678 8951701
-0.56781161 6.4295359 0.61699176 7831419
-0.56781161 6.353569 0.61699176 7962755
-0.59778923 6.2722993 0.66071004 8950626
-0.59778923 6.1964817 0.66071004 11183703
-0.59778923 6.1206641 0.66071004 11251013
-0.59778923 6.0448465 0.66071004 11907186
-0.58281553 5.9713807 0.6388725 12039583
-0.58281553 5.8954887 0.6388725 13684668
-0.58281553 5.8195968 0.6388725 3355953
-0.58281553 5.7437048 0.6388725 1314829
-0.56781161 5.6698713 0.61699176 1841169
-0.56781161 5.593905 0.61699176 591881
-0.58281553 5.5160289 0.6388725 9145472
-0.58281553 5.4401369 0.6388725 8815473
-0.59778923 5.3624878 0.66071004 11711356
-0.61273468 5.2849903 0.68250525 11776343
-0.61273468 5.2092466 0.68250525 11382109
-0.61273468 5.1335034 0.68250525 9474941
-0.62765086 5.0563059 0.70425785 11578960
-0.62765086 4.9806366 0.70425785 10457910
-0.64253753 4.9036632 0.72596794 6829056
-0.64253753 4.8280678 0.72596794 10184733
-0.62765086 4.7536283 0.70425785 11575374
-0.64253753 4.676877 0.72596794 8547869
-0.64253753 4.6012816 0.72596794 8342785
-0.64253753 4.5256858 0.72596794 9661223
-0.64253753 4.4500904 0.72596794 11507780
-0.62765086 4.3752813 0.70425785 11643991
-0.62765086 4.299612 0.70425785 11512655
-0.62765086 4.2239428 0.70425785 8552251
-0.59778923 4.149406 0.66071004 1250829
-0.61273468 4.0730963 0.68250525 5527648
-0.62765086 3.9969349 0.70425785 9347736
-0.62765086 3.9212651 0.70425785 9280146
-0.62765086 3.8455958 0.70425785 7701118
-0.61273468 3.7701223 0.68250525 2
-0.61273468 3.6943789 0.68250525 2172457
-0.64253753 3.6185405 0.72596794 3423294
-0.64253753 3.5429449 0.72596794 9543064
-0.64253753 3.4673495 0.72596794 9081483
-0.62765086 3.3915796 0.70425785 1055010
-0.64253753 3.3161583 0.72596794 8621445
-0.64253753 3.2405629 0.72596794 9477270
-0.64253753 3.1649675 0.72596794 8225413
-0.65739596 3.0898409 0.74763584 9082257
-0.65739596 3.0143192 0.74763584 8277061
-0.6722241 2.9394126 0.769261 10957335
-0.6722241 2.8639646 0.769261 9842480
-0.6722241 2.7885165 0.769261 8205873
-0.65739596 2.7122321 0.74763584 9337211
-0.65739596 2.6367106 0.74763584 11110272
-0.6722241 2.5621719 0.769261 9857126
-0.6722241 2.4867239 0.769261 11221277
-0.6722241 2.4112759 0.769261 10507081
-0.6722241 2.3358278 0.769261 11890548
-0.6722241 2.2603798 0.769261 8872547
-0.6722241 2.1849313 0.769261 10981261
-0.6722241 2.1094832 0.769261 10172451
-0.6722241 2.0340352 0.769261 10630423
-0.6722241 1.9585871 0.769261 10302744
-0.6722241 1.883139 0.769261 10432799
-0.6722241 1.807691 0.769261 10564143
-0.6722241 1.7322429 0.769261 10366764
-0.68702447 1.6586577 0.79084456 10629149
-0.68702447 1.5832828 0.79084456 10758194
-0.68702447 1.5079083 0.79084456 10694671
-0.68702447 1.4325337 0.79084456 10628128
-0.7017957 1.3593116 0.81238574 10692884
-0.7017957 1.2840102 0.81238574 10628116
-0.68702447 1.2064097 0.79084456 10169121
-0.65739596 1.1262763 0.74763584 2824448
-0.65739596 1.0507545 0.74763584 2302503
-0.6722241 0.97776151 0.769261 13355466
-0.6722241 0.90231347 0.769261 12106687
-0.68702447 0.82953644 0.79084456 8489347
-0.68702447 0.75416183 0.79084456 11186355
-0.68702447 0.67878699 0.79084456 10395302
-0.6722241 0.52507281 0.769261 1512725
-0.7017957 0.45569563 0.81238574 8468016
-0.71653813 0.38349414 0.83388537 9907257
-0.71653813 0.30826592 0.83388537 10110024
-0.68702447 0.22653913 0.79084456 8157319
-0.65739596 0.14449382 0.74763584 8291737
-0.76059389 0.092719555 0.89813358 9017508
-0.7752226 0.021148682 0.91946697 9346214
-0.16804437 7.907608 0.027358245 10712428
-0.23390755 7.7349195 0.11722044 13202802
-0.25029072 7.6531811 0.13957341 13410203
-0.25029072 7.5756168 0.13957341 12691884
-0.28295887 7.4901953 0.18414527 11966346
-0.29924423 7.408946 0.20636453 11640216
-0.28295887 7.3353758 0.18414527 11708313
-0.28295887 7.257966 0.18414527 11051420
-0.26664132 7.1841707 0.16188174 10721429
-0.28295887 7.1031466 0.18414527 10591630
-0.28295887 7.0257368 0.18414527 10525842
-0.28295887 6.9483266 0.18414527 10527381
-0.28295887 6.8709173 0.18414527 9671816
-0.28295887 6.7935071 0.18414527 9407105
-0.47625652 6.678791 0.44787675 8950415
-0.52386731 6.5933371 0.51283544 8556175
-0.57119662 6.5083857 0.57741088 8951200
-0.5869118 6.4295359 0.5988518 7963264
-0.5869118 6.353569 0.5988518 8160901
-0.61824781 6.2722993 0.64160687 9015661
-0.61824781 6.1964817 0.64160687 11577926
-0.61824781 6.1206641 0.64160687 11382107
-0.61824781 6.0448465 0.64160687 11381575
-0.5869118 5.9737372 0.5988518 328192
-0.5869118 5.8977709 0.5988518 263680
-0.5869118 5.821804 0.5988518 2560
-0.60259545 5.7437048 0.62025052 1315591
-0.60259545 5.6678123 0.62025052 1710353
-0.5869118 5.593905 0.5988518 65537
-0.5869118 5.5179386 0.5988518 5
-0.60259545 5.4401369 0.62025052 396802
-0.63387036 5.360734 0.66292197 10066792
-0.63387036 5.2849903 0.66292197 11907922
-0.63387036 5.2092466 0.66292197 11579476
-0.6494624 5.1319752 0.68419534 9408382
-0.6494624 5.0563059 0.68419534 11907648
-0.6494624 4.9806366 0.68419534 10918972
-0.66502386 4.9036632 0.70542699 9924653
-0.6494624 4.8292975 0.68419534 11897669
-0.6494624 4.7536283 0.68419534 12100687
-0.6494624 4.677959 0.68419534 10785349
-0.66502386 4.6012816 0.70542699 8213519
-0.66502386 4.5256858 0.70542699 10711072
-0.6494624 4.4509506 0.68419534 12033877
-0.6494624 4.3752813 0.68419534 11512923
-0.66502386 4.2988997 0.70542699 11907411
-0.66502386 4.2233043 0.70542699 9670202
-0.63387036 4.148839 0.66292197 1909018
-0.63387036 4.0730963 0.66292197 2369588
-0.6494624 3.9969349 0.68419534 9543575
-0.6494624 3.9212651 0.68419534 9477018
-0.66502386 3.8453269 0.70542699 9345681
-0.66502386 3.7697315 0.70542699 1910050
-0.66502386 3.6941359 0.70542699 6184033
-0.66502386 3.6185405 0.70542699 789774
-0.66502386 3.5429449 0.70542699 9214615
-0.66502386 3.4673495 0.70542699 9346192
-0.66502386 3.3917539 0.70542699 1819
-0.66502386 3.3161583 0.70542699 726290
-0.66502386 3.2405629 0.70542699 1319461
-0.66502386 3.1649675 0.70542699 3293239
-0.68055552 3.0898409 0.72661752 8819857
-0.69605565 3.0148606 0.74776626 7491144
-0.69605565 2.9394126 0.74776626 11086630
-0.69605565 2.8639646 0.74776626 9056296
-0.69605565 2.7885165 0.74776626 7153708
-0.68055552 2.7122321 0.72661752 10848390
-0.69605565 2.6376202 0.74776626 11043450
-0.69605565 2.5621719 0.74776626 9599344
-0.69605565 2.4867239 0.74776626 11090212
-0.69605565 2.4112759 0.74776626 9252649
-0.69605565 2.3358278 0.74776626 11499134
-0.69605565 2.2603798 0.74776626 10451325
-0.69605565 2.1849313 0.74776626 11439499
-0.69605565 2.1094832 0.74776626 10499125
-0.69605565 2.0340352 0.74776626 10563343
-0.69605565 1.9585871 0.74776626 10761253
-0.71152675 1.8847815 0.76887423 10170647
-0.71152675 1.809407 0.76887423 10629129
-0.71152675 1.7340324 0.76887423 10629160
-0.71152675 1.6586577 0.76887423 10693664
-0.71152675 1.5832828 0.76887423 10695449
-0.7269671 1.5099142 0.78994089 11023364
-0.7269671 1.434613 0.78994089 10628647
-0.7269671 1.3593116 0.78994089 10562842
-0.7269671 1.2840102 0.78994089 10823716
-0.7269671 1.2087088 0.78994089 10497803
-0.66502386 1.1238894 0.70542699 1645605
-0.68055552 0.97523284 0.72661752 2236450
-0.69605565 0.90231347 0.74776626 5527643
-0.68055552 0.82418942 0.72661752 5
-0.71152675 0.75416183 0.76887423 8489355
-0.71152675 0.67878699 0.76887423 6712685
-0.69605565 0.60052085 0.74776626 987677
-0.7423777 0.45872211 0.81096667 8990995
-0.7423777 0.38349414 0.81096667 9974078
-0.7423777 0.30826592 0.81096667 10176073
-0.71152675 0.22653913 0.76887423 7896453
-0.7731089 0.089346886 0.85289598 9281193
-0.7731089 0.014264584 0.85289598 9807029
-0.1688208 7.907608 0.022066344 9662061
-0.23747411 7.7349195 0.10981539 12678507
-0.25455132 7.6531811 0.13164271 13277334
-0.27159455 7.5716066 0.15342645 11970465
-0.2886034 7.4901953 0.17516647 11111810
-0.30557862 7.408946 0.19686319 10916752
-0.30557862 7.331614 0.19686319 11442572
-0.30557862 7.254282 0.19686319 10851473
-0.2886034 7.1805563 0.17516647 10589846
-0.2886034 7.1031466 0.17516647 10326922
-0.2886034 7.0257368 0.17516647 9934736
-0.30557862 6.944952 0.19686319 10196877
-0.2886034 6.8709173 0.17516647 9802376
-0.2886034 6.7935071 0.17516647 9209723
-0.49008968 6.678791 0.43269616 8819085
-0.53971738 6.5933371 0.49612734 8227212
-0.58905166 6.5083857 0.55918419 8555405
-0.60543257 6.4295359 0.58012092 8094339
-0.60543257 6.353569 0.58012092 7896960
-0.63809615 6.2722993 0.62187064 8818536
-0.63809615 6.1964817 0.62187064 11775059
-0.63809615 6.1206641 0.62187064 11382867
-0.63809615 6.0448465 0.62187064 8551205
-0.60543257 5.9737372 0.58012092 131328
-0.62178063 5.8954887 0.60101652 327937
-0.62178063 5.8195968 0.60101652 263424
-0.62178063 5.7437048 0.60101652 1578000
-0.62178063 5.6678123 0.60101652 1446163
-0.62178063 5.5919209 0.60101652 722696
-0.62178063 5.5160289 0.60101652 132096
-0.62178063 5.4401369 0.60101652 2
-0.6543805 5.360734 0.64268452 6843463
-0.67063308 5.2833138 0.66345757 11447368
-0.67063308 5.2076445 0.66345757 11449931
-0.67063308 5.1319752 0.66345757 9275751
-0.67063308 5.0563059 0.66345757 11381831
-0.68685377 4.979259 0.68418998 10786120
-0.68685377 4.9036632 0.68418998 11439449
-0.68685377 4.8280678 0.68418998 10976566
-0.68685377 4.7524724 0.68418998 11838033
-0.68685377 4.676877 0.68418998 11179326
-0.68685377 4.6012816 0.68418998 11896379
-0.68685377 4.5256858 0.68418998 10711604
-0.68685377 4.4500904 0.68418998 11968591
-0.68685377 4.374495 0.68418998 11447118
-0.68685377 4.2988997 0.68418998 11448134
-0.68685377 4.2233043 0.68418998 10526017
-0.6543805 4.148839 0.64268452 1447684
-0.6543805 4.0730963 0.64268452 1382182
-0.68685377 3.9965179 0.68418998 9280656
-0.68685377 3.9209223 0.68418998 9148557
-0.68685377 3.8453269 0.68418998 8950924
-0.68685377 3.7697315 0.68418998 1121568
-0.68685377 3.6941359 0.68418998 1977388
-0.68685377 3.6185405 0.68418998 6776426
-0.68685377 3.5429449 0.68418998 8689541
-0.70304334 3.4674497 0.70488214 9147795
-0.70304334 3.3919277 0.70488214 200214
-0.70304334 3.316406 0.70488214 527368
-0.70304334 3.2408843 0.70488214 465172
-0.70304334 3.1653626 0.70488214 1909281
-0.70304334 3.0898409 0.70488214 9279125
-0.71920013 3.0148606 0.7255336 7426118
-0.71920013 2.9394126 0.7255336 10956043
-0.71920013 2.8639646 0.7255336 10043971
-0.70304334 2.7877541 0.70488214 13603972
-0.70304334 2.7122321 0.70488214 11375501
-0.71920013 2.6376202 0.7255336 10715258
-0.71920013 2.5621719 0.7255336 9138276
-0.71920013 2.4867239 0.7255336 10826272
-0.71920013 2.4112759 0.7255336 8863038
-0.71920013 2.3358278 0.7255336 10904665
-0.71920013 2.2603798 0.7255336 11437962
-0.71920013 2.1849313 0.7255336 10584967
-0.73532659 2.1109054 0.74614525 9909048
-0.73532659 2.0355306 0.74614525 10762253
-0.73532659 1.9601561 0.74614525 10499358
-0.73532659 1.8847815 0.74614525 10169139
-0.73532659 1.809407 0.74614525 10432529
-0.75142097 1.7358184 0.76671654 10496297
-0.75142097 1.660517 0.76671654 10563127
-0.75142097 1.5852154 0.76671654 10238503
-0.75142097 1.5099142 0.76671654 10891024
-0.75142097 1.434613 0.76671654 10498587
-0.75142097 1.3593116 0.76671654 10760980
-0.75142097 1.2840102 0.76671654 10890771
-0.75142097 1.2087088 0.76671654 9910042
-0.70304334 1.1262763 0.70488214 1708814
-0.70304334 0.97523284 0.70488214 14
-0.73532659 0.90491104 0.74614525 2959658
-0.73532659 0.82953644 0.74614525 199183
-0.75142097 0.75690103 0.76671654 5791588
-0.75142097 0.68159962 0.76671654 2896948
-0.73532659 0.60341239 0.74614525 1379885
-0.76748449 0.45872211 0.78724778 8402723
-0.78351659 0.38658786 0.8077395 10038823
-0.78351659 0.31143284 0.8077395 9846338
-0.75142097 0.2297914 0.76671654 8353153
-0.81548727 0.092719555 0.84860325 8952486
-0.81548727 0.017710209 0.84860325 9346994
-0.15149686 7.9119806 -0.004742458 10252656
-0.18732876 7.825366 0.03820464 11831433
-0.22301617 7.7391014 0.080979049 11826278
-0.25856072 7.6531811 0.12358209 12751248
-0.27627981 7.5716066 0.14481975 11970722
-0.29396307 7.4901953 0.16601478 11111811
-0.31161147 7.408946 0.1871676 10982794
-0.31161147 7.331614 0.1871676 11310220
-0.29396307 7.257966 0.16601478 10392211
-0.29396307 7.1805563 0.16601478 9998989
-0.29396307 7.1031466 0.16601478 10590091
-0.29396307 7.0257368 0.16601478 10392722
-0.31161147 6.944952 0.1871676 10262154
-0.29396307 6.8709173 0.16601478 9802632
-0.29396307 6.7935071 0.16601478 9340797
-0.50343919 6.678791 0.41708854 8820363
-0.57216525 6.5903611 0.49946201 8356742
-0.60632545 6.5083857 0.54040569 8358538
-0.62335587 6.4295359 0.5608176 8291969
-0.64035225 6.3508406 0.58118933 7963004
-0.65731472 6.2722993 0.60152066 8753249
-0.67424482 6.1939116 0.62181282 11117908
-0.67424482 6.1181688 0.62181282 11250502
-0.65731472 6.0448465 0.60152066 7368981
-0.64035225 5.9713807 0.58118933 330496
-0.64035225 5.8954887 0.58118933 0
-0.64035225 5.8195968 0.58118933 1250314
-0.64035225 5.7437048 0.58118933 1446154
-0.64035225 5.6678123 0.58118933 1578260
-0.64035225 5.5919209 0.58118933 1644053
-0.65731472 5.514123 0.60152066 131079
-0.65731472 5.4383054 0.60152066 0
-0.67424482 5.360734 0.62181282 4737059
-0.69114184 5.2833138 0.64206511 11447126
-0.69114184 5.2076445 0.64206511 11579733
-0.69114184 5.1319752 0.64206511 9277049
-0.69114184 5.0563059 0.64206511 11447376
-0.69114184 4.9806366 0.64206511 11050560
-0.70800579 4.9036632 0.66227776 9924914
-0.70800579 4.8280678 0.66227776 11040814
-0.69114184 4.7536283 0.64206511 12560463
-0.70800579 4.676877 0.66227776 12100163
-0.70800579 4.6012816 0.66227776 12949317
-0.70800579 4.5256858 0.66227776 10907416
-0.70800579 4.4500904 0.66227776 11704903
-0.70800579 4.374495 0.66227776 11316315
-0.70800579 4.2988997 0.66227776 11251536
-0.70800579 4.2233043 0.66227776 11842649
-0.69114184 4.148273 0.64206511 660999
-0.69114184 4.0726042 0.64206511 131596
-0.70800579 3.9965179 0.66227776 9280921
-0.7248373 3.9205799 0.68245119 9083280
-0.70800579 3.8453269 0.66227776 8554883
-0.70800579 3.7697315 0.66227776 9607324
-0.69114184 3.6942573 0.64206511 9082270
-0.69114184 3.618588 0.64206511 7569792
-0.7248373 3.5429714 0.68245119 8951183
-0.7248373 3.4674497 0.68245119 9018251
-0.7248373 3.3919277 0.68245119 1847352
-0.7248373 3.316406 0.68245119 7107437
-0.7248373 3.2408843 0.68245119 8622992
-0.7248373 3.1653626 0.68245119 8226432
-0.7248373 3.0898409 0.68245119 9541007
-0.74163485 3.0148606 0.70258492 7820356
-0.74163485 2.9394126 0.70258492 10628627
-0.74163485 2.8639646 0.70258492 13594729
-0.74163485 2.7885165 0.70258492 14389661
-0.74163485 2.7130682 0.70258492 10844795
-0.74163485 2.6376202 0.70258492 10452605
-0.74163485 2.5621719 0.70258492 9663861
-0.75840074 2.4877789 0.72267991 10959635
-0.75840074 2.4124041 0.72267991 10374233
-0.74163485 2.3358278 0.70258492 11103344
-0.74163485 2.2603798 0.70258492 10257022
-0.75840074 2.1862803 0.72267991 9666178
-0.75840074 2.1109054 0.72267991 9847600
-0.75840074 2.0355306 0.72267991 9974027
-0.75840074 1.9601561 0.72267991 10500911
-0.75840074 1.8847815 0.72267991 10630937
-0.77513343 1.8111196 0.74273551 10497579
-0.77513343 1.7358184 0.74273551 10626611
-0.77513343 1.660517 0.74273551 10891565
-0.77513343 1.5852154 0.74273551 10694199
-0.77513343 1.5099142 0.74273551 10759465
-0.77513343 1.434613 0.74273551 10301503
-0.77513343 1.3593116 0.74273551 10104108
-0.77513343 1.2840102 0.74273551 10563880
-0.77513343 1.2087088 0.74273551 10368772
-0.7248373 1.1262763 0.68245119 1120525
-0.7248373 1.0507545 0.68245119 789518
-0.77513343 0.9075036 0.74273551 723982
-0.77513343 0.8322022 0.74273551 396044
-0.75840074 0.75416183 0.72267991 13555928
-0.77513343 0.68159962 0.74273551 6450028
-0.75840074 0.60341239 0.72267991 1842207
-0.74163485 0.52507281 0.70258492 920587
-0.79183382 0.45872211 0.76275206 8466216
-0.80850166 0.38658786 0.78273004 10170415
-0.80850166 0.31143284 0.78273004 10501700
-0.77513343 0.2297914 0.74273551 8287873
-0.75840074 0.15116453 0.72267991 8293517
-0.84174013 0.092719555 0.82256943 9017769
-0.85831159 0.021148682 0.84243143 9215913
-0.15127315 7.9119806 -0.0094987508 9859957
-0.18843636 7.825366 0.032301649 11503234
-0.22544974 7.7391014 0.073933989 12287858
-0.26231495 7.6531811 0.11539953 12683658
-0.26231495 7.5756168 0.11539953 12756378
-0.29903272 7.4901953 0.15669918 11044995
-0.31733683 7.408946 0.17728722 10259849
-0.31733683 7.331614 0.17728722 11113863
-0.29903272 7.257966 0.15669918 10654861
-0.29903272 7.1805563 0.15669918 9867142
-0.29903272 7.1031466 0.15669918 10658194
-0.29903272 7.0257368 0.15669918 9803408
-0.29903272 6.9483266 0.15669918 10065802
-0.29903272 6.8709173 0.15669918 9736329
-0.29903272 6.7935071 0.15669918 9209210
-0.53416514 6.6757221 0.42117223 8884105
-0.5875715 6.5903611 0.48124328 8160902
-0.6230008 6.5083857 0.5210939 8358023
-0.658292 6.4267321 0.56078845 7962501
-0.658292 6.3508406 0.56078845 7962244
-0.69344389 6.2696552 0.60032725 8818020
-0.69344389 6.1939116 0.60032725 11445579
-0.69344389 6.1181688 0.60032725 11184210
-0.67588454 6.0448465 0.58057714 8157993
-0.658292 5.9713807 0.56078845 988416
-0.658292 5.8954887 0.56078845 1249551
-0.658292 5.8195968 0.56078845 1118988
-0.658292 5.7437048 0.56078845 1381125
