# .PCD v.7 - Point Cloud Data file format
VERSION .7
FIELDS x y z rgb
SIZE 4 4 4 4
TYPE F F F F
COUNT 1 1 1 1
WIDTH  1570
HEIGHT 1
VIEWPOINT 0 0 0 1 0 0 0
POINTS 1570
DATA ascii
0.979734 4.10272 -0.115619 256
0.820005 3.87335 -0.123083 771
0.739427 3.64251 -0.126849 771
0.766339 3.41291 -0.125593 256
0.953244 3.18902 -0.116857 256
3.21214 2.84451 -0.0112768 1024
3.73479 2.66571 0.0131458 67328
4.05033 2.48195 0.0278999 1792
4.21527 2.29223 0.0356131 2561
4.67698 2.13016 0.0571787 2048
4.57815 1.92424 0.0525644 3328
4.43836 1.71252 0.0460319 3329
4.45843 1.51588 0.0469715 2560
4.47847 1.31957 0.0479002 3331
4.43836 1.11602 0.0460319 2307
4.43836 0.917189 0.0460319 199168
4.37794 0.709706 0.0432005 67330
4.29689 0.498067 0.0394173 1795
4.19478 0.28168 0.0346399 1281
4.07108 0.059917 0.0288659 67586
3.8409 -0.18281 0.0181054 1540
0.58559 5.72462 -0.0887791 256
0.880227 5.47751 -0.0516831 256
1.03825 5.24145 -0.0317872 771
1.14257 5.00999 -0.0186533 257
1.19442 4.78173 -0.0121263 1025
1.16852 4.55578 -0.0153853 768
1.14257 4.32939 -0.0186533 513
0.985785 4.10272 -0.0383924 256
0.880227 3.87373 -0.0516831 768
0.720315 3.64209 -0.0718172 769
0.7471 3.41226 -0.0684451 769
0.985785 3.18988 -0.0383924 0
2.79877 2.82426 0.189869 1024
3.26924 2.63914 0.249102 1536
3.57313 2.45088 0.287356 2561
3.78559 2.26089 0.31411 3329
3.9321 2.06897 0.332565 67328
4.71657 1.93878 0.431333 2048
4.13832 1.68385 0.358514 3072
4.2198 1.49156 0.368785 2564
4.26033 1.29581 0.373883 2816
4.26033 1.0956 0.373883 3074
4.26033 0.895394 0.373883 3840
4.2198 0.689346 0.368785 2816
4.13832 0.47635 0.358514 2817
4.05626 0.261868 0.348194 1792
3.89043 0.0317583 0.327307 1539
3.67983 -0.209172 0.300797 2051
0.590751 5.72462 -0.04256 256
0.881568 5.47751 0.0175389 257
1.03755 5.24145 0.0497722 256
1.11485 5.01091 0.0657465 769
1.24268 4.78034 0.0921598 769
1.19169 4.55531 0.0816257 66049
1.14051 4.32939 0.0710504 772
1.01168 4.10268 0.0444241 0
0.881568 3.87373 0.0175389 1028
0.750167 3.64251 -0.00961657 256
0.750167 3.41226 -0.00961657 1024
0.985758 3.18988 0.0390707 66049
2.5707 2.81389 0.366604 769
3.0207 2.62614 0.4596 2561
3.30453 2.43488 0.518247 2048
3.51839 2.24317 0.562449 2817
3.64489 2.04771 0.58859 1792
3.77005 1.85431 0.614454 2304
3.87334 1.66083 0.635796 1792
3.95533 1.46677 0.65274 2560
3.99611 1.26919 0.661161 3072
4.03674 1.07229 0.669562 2305
4.03674 0.870512 0.669562 3072
3.99611 0.662802 0.661161 2560
3.93488 0.451203 0.648518 2050
3.85276 0.235128 0.631541 2560
3.70763 0.00679302 0.601553 67329
3.47592 -0.239702 0.553662 1795
0.618456 5.72296 0.011516 0
0.877475 5.47751 0.0866494 514
1.03044 5.24145 0.131025 257
1.13142 5.00999 0.160316 1025
1.18162 4.78173 0.174874 67076
1.15654 4.55578 0.167599 772
1.10625 4.32965 0.153015 512
1.03044 4.10265 0.131025 1024
0.877475 3.87373 0.0866494 769
0.774484 3.64294 0.0567781 512
0.774484 3.41291 0.0567781 1024
0.979654 3.18988 0.116289 66817
1.52755 2.98518 0.275222 1026
2.35287 2.80451 0.514625 1280
2.77874 2.61423 0.638152 1280
3.10461 2.42453 0.73268 1536
3.31699 2.23172 0.794286 2304
3.42177 2.03328 0.824676 1794
3.62853 1.84647 0.884649 67587
3.71022 1.65022 0.908344 2051
3.71022 1.44614 0.908344 2819
3.75084 1.24702 0.92014 2564
3.79133 1.04861 0.931882 401677
3.7711 0.842405 0.926011 1537
3.75084 0.635839 0.92014 2305
3.73055 0.42891 0.914242 1792
3.62853 0.20801 0.884649 2561
3.50491 -0.0184827 0.848804 1280
3.27482 -0.266776 0.78206 1281
0.615645 5.72296 0.0600045 0
0.867971 5.47751 0.155229 0
1.01699 5.24145 0.211465 257
1.13983 5.00907 0.257825 768
1.16425 4.78173 0.267045 770
1.16425 4.55531 0.267045 512
1.11536 4.32939 0.248589 768
1.01699 4.10265 0.211465 768
0.89293 3.87393 0.16465 512
0.767642 3.64294 0.117366 768
0.767642 3.41291 0.117366 513
0.917839 3.18815 0.174049 1025
1.4059 2.98098 0.358235 768
2.17117 2.79739 0.647037 1282
2.61233 2.60753 0.813536 1792
2.89049 2.41406 0.918505 1024
3.14147 2.22344 1.01323 2048
3.3058 2.02964 1.07524 1025
3.46779 1.83858 1.13638 1792
3.58779 1.64595 1.18166 1792
4.26321 1.52025 1.43655 1795
3.66709 1.24702 1.21158 3328
3.66709 1.04329 1.21158 2304
3.62751 0.833876 1.19665 1792
3.54794 0.617626 1.16662 2048
3.48789 0.403093 1.14395 1795
3.40732 0.183964 1.11356 1280
3.28538 -0.044075 1.06754 1540
3.05841 -0.294192 0.981881 1536
0.60904 5.72296 0.108123 0
0.853116 5.47751 0.222852 256
1.04493 5.23915 0.313014 257
1.13971 5.00816 0.357565 1025
1.18682 4.78034 0.379714 1026
1.18682 4.55436 0.379714 1026
1.09241 4.32939 0.335334 257
0.997259 4.10265 0.290606 768
0.853116 3.87373 0.222852 771
0.780402 3.64336 0.188673 256
0.756067 3.41291 0.177234 768
0.87726 3.18728 0.234199 1028
1.37346 2.98098 0.467437 768
2.00451 2.7914 0.764066 66563
2.41409 2.59941 0.956591 67075
2.70678 2.40649 1.09417 1283
2.91131 2.21174 1.19031 1025
3.11216 2.02048 1.28472 67329
3.25063 1.82664 1.34981 67584
3.32898 1.62872 1.38664 1793
3.40677 1.43219 1.42321 1539
3.44547 1.23205 1.44139 2048
3.48402 1.03261 1.45952 1792
3.44547 0.822433 1.44139 67075
3.38738 0.608446 1.41409 2050
3.34848 0.396582 1.39581 1540
3.1519 0.156114 1.3034 1792
3.03226 -0.0737181 1.24716 1793
2.80951 -0.325952 1.14246 67076
0.598679 5.72296 0.155575 0
0.879312 5.47473 0.315489 256
1.03996 5.238 0.407035 257
1.13078 5.00724 0.458786 256
1.19843 4.77896 0.497333 771
1.17592 4.55389 0.48451 1024
1.10814 4.32888 0.445884 768
0.99429 4.10262 0.381006 512
0.85618 3.87393 0.302307 771
0.739831 3.64294 0.236008 256
0.739831 3.41291 0.236008 1025
0.879312 3.18815 0.315489 1027
1.28802 2.97887 0.54838 768
1.81126 2.78413 0.846548 769
2.22946 2.59257 1.08485 768
2.51306 2.39885 1.24646 67076
2.71121 2.20329 1.35937 1537
2.86716 2.00753 1.44823 1280
2.98265 1.81052 1.51404 1537
3.07794 1.61344 1.56834 1794
3.17238 1.4181 1.62216 1539
3.20992 1.21692 1.64355 2048
3.22865 1.01373 1.65421 1539
3.24733 0.81091 1.66487 1792
3.17238 0.593038 1.62216 67076
3.13471 0.380202 1.60068 1025
3.00177 0.14909 1.52494 1024
2.82838 -0.0924625 1.42614 1025
2.55299 -0.358177 1.2692 1026
0.539467 5.72627 0.171403 0
0.873832 5.47335 0.398431 0
1.02651 5.23686 0.502098 256
1.11281 5.00633 0.560697 768
1.1771 4.77827 0.604349 257
1.15571 4.55342 0.589828 256
1.11281 4.32838 0.560697 769
1.00482 4.10256 0.487376 256
0.851847 3.87412 0.383508 513
0.719034 3.64294 0.293325 66305
0.719034 3.41291 0.293325 1025
0.851847 3.18815 0.383508 774
1.19845 2.97675 0.618842 768
1.67822 2.78046 0.944606 66307
2.03932 2.58567 1.18978 1024
2.29264 2.3896 1.36179 1282
2.48341 2.19304 1.49131 1792
2.67072 2.00005 1.61849 1536
2.78148 1.80237 1.6937 1024
2.87287 1.60462 1.75576 2048
2.9454 1.40625 1.805 2049
2.96345 1.20162 1.81726 2560
3.01741 1.00284 1.85389 67328
2.99945 0.793471 1.8417 1792
2.96345 0.580612 1.81726 1794
2.9092 0.363674 1.78042 1536
2.79983 0.134964 1.70615 1024
2.57749 -0.118993 1.5552 2053
2.31188 -0.386765 1.37485 1280
0.609417 5.71967 0.281288 0
0.86058 5.47196 0.482336 256
1.02475 5.23458 0.613749 256
1.12606 5.00359 0.694841 257
1.1462 4.77758 0.710965 256
1.1462 4.55248 0.710965 512
1.10587 4.32788 0.678688 259
0.983949 4.10252 0.581086 771
0.86058 3.87451 0.482336 257
0.735744 3.64378 0.382411 257
0.693803 3.41291 0.348837 513
0.798347 3.18728 0.432522 768
1.12606 2.97569 0.694841 512
1.54101 2.77678 1.027 512
1.86496 2.5801 1.2863 1024
2.12408 2.38493 1.49372 1540
2.30509 2.18788 1.63861 2048
2.44753 1.99063 1.75262 2306
2.553 1.79211 1.83705 1793
2.65733 1.59574 1.92057 1025
2.70907 1.39428 1.96199 2304
2.74341 1.19134 1.98948 67328
2.7947 0.991869 2.03053 67586
2.77764 0.78174 2.01687 2304
2.76054 0.571234 2.00319 1792
2.69186 0.350346 1.94821 1281
2.57047 0.117163 1.85103 769
2.35875 -0.13815 1.68156 2049
0.62496 5.71639 0.365289 0
0.858648 5.46921 0.584553 256
1.0114 5.23231 0.727878 0
1.10567 5.00178 0.816324 772
1.12441 4.77621 0.833912 256
1.12441 4.55154 0.833912 771
1.08689 4.32737 0.798705 256
0.992436 4.10243 0.710084 257
0.858648 3.87489 0.584553 1026
0.723005 3.6442 0.457282 66308
0.664294 3.41291 0.402197 0
0.761952 3.18728 0.493825 513
1.04922 2.97462 0.763358 1024
1.41944 2.77431 1.11073 1024
1.70558 2.5759 1.37922 1281
1.93182 2.37867 1.59148 1282
2.10215 2.18095 1.75131 1027
2.23619 1.98302 1.87706 769
2.33543 1.78383 1.97018 1536
2.43359 1.58679 2.06229 1537
2.48228 1.38464 2.10797 1792
2.5146 1.18097 2.13828 2560
2.54679 0.978045 2.16849 2304
2.54679 0.769926 2.16849 67075
2.5146 0.555492 2.13828 1024
2.44986 0.333549 2.07754 1539
2.33543 0.0991998 1.97018 769
2.11902 -0.161372 1.76713 1024
0.845603 5.46646 0.689066 256
0.98609 5.23005 0.843327 256
1.07279 4.99998 0.938528 512
1.09003 4.77484 0.957456 768
1.09003 4.55061 0.957456 769
1.05552 4.32688 0.919559 770
0.98609 4.10233 0.843327 256
0.845603 3.87527 0.689066 257
0.720858 3.64504 0.552085 516
0.666865 3.41422 0.492797 257
0.738783 3.18815 0.57177 256
0.98609 2.97462 0.843327 768
1.27748 2.77058 1.16328 769
1.54319 2.57167 1.45505 769
1.73726 2.37236 1.66816 67334
1.89571 2.17397 1.84214 1283
2.02037 1.97537 1.97903 1537
2.09736 1.77339 2.06357 67330
2.20398 1.57778 2.18063 1280
2.26429 1.37735 2.24687 2048
2.30924 1.17577 2.29623 2052
2.32417 0.969691 2.31262 2560
2.33908 0.763986 2.32898 1537
2.2793 0.542797 2.26335 1540
2.2191 0.320003 2.19724 1792
2.11268 0.084712 2.08039 769
1.89571 -0.180921 1.84214 1025
0.821108 5.46373 0.794732 257
0.948561 5.22779 0.958896 516
1.01154 4.99908 1.04003 772
1.05846 4.7728 1.10046 769
1.04286 4.54968 1.08036 768
1.01154 4.32638 1.04003 774
0.948561 4.10227 0.958896 258
0.837151 3.87585 0.81539 2
0.707941 3.64588 0.648959 257
0.642568 3.41487 0.564756 0
0.707941 3.18902 0.648959 257
0.901 2.97356 0.897633 768
1.1669 2.76934 1.24013 1536
1.37945 2.56742 1.51392 1281
1.57184 2.36919 1.76173 2305
1.70232 2.1687 1.9298 769
1.78811 1.96572 2.0403 1792
1.90102 1.76919 2.18573 66563
1.98463 1.57098 2.29343 67330
2.03986 1.37003 2.36457 67584
2.06732 1.16529 2.39996 1027
2.09469 0.961291 2.43521 1536
2.08102 0.749044 2.4176 1536
2.03986 0.530009 2.36457 67328
1.98463 0.306358 2.29343 67585
1.85887 0.0627799 2.13145 1537
1.67351 -0.20065 1.8927 1281
0.596278 5.70824 0.613429 0
0.784935 5.461 0.900375 258
0.870402 5.22779 1.03036 772
0.954877 4.99728 1.15885 516
0.98282 4.77213 1.20134 771
0.98282 4.54876 1.20134 771
0.954877 4.32588 1.15885 1025
0.898669 4.10221 1.07336 256
0.813535 3.87641 0.943873 768
0.68395 3.64672 0.746778 256
0.625616 3.41616 0.658056 0
0.66941 3.18988 0.724662 513
0.813535 2.97249 0.943873 768
1.0522 2.76809 1.30688 66816
1.22953 2.56457 1.57657 1537
1.38937 2.36441 1.8197 1284
1.49396 2.16162 1.97876 1792
1.58419 1.95988 2.11602 1280
1.68591 1.76286 2.27073 1792
1.76123 1.56414 2.38527 1540
1.81097 1.36267 2.46094 1792
1.83571 1.15739 2.49857 1792
1.86037 0.952846 2.53606 1793
1.84805 0.740014 2.51733 1024
1.81097 0.520357 2.46094 66562
1.73621 0.289161 2.34722 1793
1.62251 0.0443187 2.1743 67329
1.45492 -0.220564 1.91939 769
0.559196 5.70662 0.68174 772
0.724435 5.45965 0.98201 257
0.811687 5.22555 1.14056 66048
0.861011 4.99728 1.2302 770
0.909959 4.77077 1.31914 768
0.909959 4.54784 1.31914 512
0.885533 4.32539 1.27475 257
0.848718 4.10211 1.20785 768
0.761975 3.87679 1.05022 768
0.66138 3.64796 0.867428 256
0.584894 3.41681 0.728437 0
0.623249 3.19075 0.798139 256
0.761975 2.97462 1.05022 1024
0.922139 2.76559 1.34127 513
1.07835 2.56171 1.62513 1281
1.19591 2.35799 1.83877 1539
1.29984 2.15628 2.02763 1536
1.39077 1.95598 2.19286 768
1.46923 1.75649 2.33545 1280
1.53569 1.55726 2.45621 67330
1.57959 1.35527 2.53599 1536
1.60142 1.14944 2.57566 67329
1.60142 0.938668 2.57566 1539
1.60142 0.727898 2.57566 1026
1.56865 0.507406 2.5161 1536
1.51362 0.278768 2.41611 1025
1.35683 0.0144238 2.13119 512
1.24231 -0.240664 1.9231 1284
0.525938 5.70339 0.772083 512
0.655867 5.45829 1.05952 258
0.740807 5.22331 1.24743 769
0.782786 4.99549 1.3403 771
0.803654 4.77077 1.38647 66563
0.824444 4.54692 1.43246 513
0.803654 4.3249 1.38647 768
0.782786 4.10202 1.3403 256
0.709107 3.87735 1.17731 256
0.623668 3.6492 0.988292 257
0.558709 3.41873 0.844576 256
0.569587 3.19161 0.868648 1026
0.677225 2.97462 1.10677 0
0.793229 2.76307 1.36341 1025
0.927198 2.55884 1.65978 1025
1.02801 2.35476 1.88282 1283
1.11715 2.15271 2.07999 1024
1.17573 1.94812 2.20961 1282
1.24327 1.74795 2.35901 1796
1.30993 1.55035 2.5065 1537
1.33824 1.34534 2.56913 1537
1.35703 1.13877 2.61069 1025
1.3664 0.930099 2.63142 1281
1.35703 0.715692 2.61069 1536
1.32883 0.494359 2.54829 257
1.26241 0.257807 2.40135 67330
1.14652 -0.000690937 2.14498 67328
1.038 -0.260954 1.90489 1024
0.481746 5.70017 0.86091 256
0.5883 5.45559 1.15649 516
0.640649 5.22331 1.30171 772
0.675213 4.99549 1.39759 1028
0.709512 4.76943 1.49273 770
0.718049 4.54646 1.5164 769
0.709512 4.32441 1.49273 1025
0.692399 4.10196 1.44525 256
0.640649 3.87791 1.30171 257
0.570715 3.65043 1.10771 256
0.499681 3.41937 0.910658 256
0.508619 3.19248 0.935459 515
0.5883 2.97462 1.15649 769
0.683816 2.76307 1.42144 513
0.785725 2.5574 1.70415 773
0.860646 2.35153 1.91197 1796
0.926184 2.14732 2.09376 1794
0.966643 1.94021 2.206 1536
1.03061 1.7415 2.38343 1281
1.0701 1.53874 2.49299 1027
1.10144 1.33533 2.57992 67075
1.12479 1.13072 2.64469 1536
1.12479 0.9186 2.64469 67072
1.10924 0.700309 2.60155 67328
1.07796 0.474609 2.51478 1792
1.00673 0.229498 2.3172 768
0.950506 -0.0121007 2.16123 1281
0.860646 -0.27322 1.91197 768
0.419708 5.69857 0.92158 260
0.495752 5.45559 1.19908 770
0.550039 5.22108 1.3972 256
0.570182 4.9946 1.47071 512
0.590205 4.76943 1.54379 513
0.603493 4.546 1.59228 1025
0.596858 4.32416 1.56806 1280
0.583542 4.10193 1.51948 768
0.550039 3.87828 1.3972 769
0.495752 3.65125 1.19908 256
0.44755 3.42129 1.02318 0
0.44061 3.19334 0.997857 768
0.495752 2.97462 1.19908 0
0.570182 2.76307 1.47071 768
0.636489 2.55452 1.7127 1027
0.701542 2.3499 1.95011 1283
0.739996 2.1419 2.09041 1536
0.771701 1.93423 2.20613 67330
0.8156 1.73285 2.36633 1024
0.84661 1.52938 2.47949 1792
0.877326 1.32778 2.59161 1792
0.883441 1.1172 2.61391 2049
0.877326 0.901194 2.59161 1537
0.865078 0.681663 2.54688 1792
0.828035 0.447935 2.41172 1281
0.784306 0.207989 2.25212 1027
0.752715 -0.0274143 2.13683 1280
0.675674 -0.293818 1.85568 1280
0.351069 5.69697 0.977614 256
0.409842 5.45289 1.28502 1025
0.438718 5.22108 1.43605 257
0.453032 4.9946 1.51091 513
0.467266 4.76943 1.58534 513
0.481409 4.54555 1.65934 768
0.476708 4.32392 1.63472 512
0.467266 4.1019 1.58534 256
0.448272 3.87865 1.48601 0
0.409842 3.65206 1.28502 769
0.375725 3.42256 1.10658 256
0.370814 3.19505 1.08089 256
0.400144 2.97462 1.23428 769
0.453032 2.76307 1.51091 769
0.500148 2.55452 1.75736 1026
0.532602 2.34501 1.92708 1283
0.564624 2.13827 2.09458 1792
0.587241 1.93023 2.21287 1280
0.596228 1.71755 2.25988 67329
0.627423 1.51757 2.42303 1536
0.640666 1.30999 2.4923 3328
0.645066 1.09807 2.51531 2048
0.645066 0.883594 2.51531 1537
0.63185 0.659646 2.44616 1793
0.609651 0.427667 2.33006 1794
0.596228 0.200765 2.25988 67328
0.569171 -0.0389752 2.11832 1280
0.518748 -0.302112 1.85462 66305
0.279084 5.69377 1.0545 256
0.307761 5.45289 1.31321 513
0.327498 5.21997 1.49135 512
0.341439 4.99194 1.61712 768
0.346978 4.76809 1.66709 769
0.352496 4.54509 1.71687 66563
0.352496 4.32344 1.71687 770
0.346978 4.10184 1.66709 1026
0.335878 3.87902 1.56695 768
0.313427 3.65287 1.36436 513
0.29349 3.42382 1.18449 256
0.287745 3.19591 1.13265 0
0.302068 2.97462 1.26188 1024
0.330297 2.76181 1.5166 1024
0.355245 2.55162 1.74168 1283
0.377059 2.34338 1.93853 1283
0.395883 2.13645 2.10834 1283
0.40652 1.92621 2.20438 1026
0.417089 1.71755 2.29969 1792
0.422337 1.50566 2.34708 1792
0.427571 1.29456 2.39429 4355
0.430176 1.08147 2.41784 132864
0.430176 0.865798 2.41784 1793
0.422337 0.640546 2.34708 67328
0.419716 0.420861 2.32341 67330
0.411817 0.193515 2.25212 1024
0.395883 -0.0467181 2.10834 1027
0.366192 -0.310437 1.84048 1024
0.196328 5.69218 1.09939 0
0.203777 5.45289 1.33331 257
0.208672 5.22108 1.487 768
0.215108 4.99017 1.68917 1027
0.215907 4.76742 1.71422 1025
0.217498 4.54464 1.76419 769
0.216704 4.32344 1.73923 67328
0.215907 4.10181 1.71422 1280
0.213508 3.87939 1.63892 512
0.207043 3.65368 1.43597 512
0.201309 3.42508 1.2558 768
0.199655 3.19762 1.20386 513
0.202955 2.97569 1.30752 257
0.210287 2.76181 1.53784 0
0.216704 2.55017 1.73923 1026
0.223018 2.34174 1.93756 1024
0.227691 2.1328 2.08435 1024
0.231546 1.9242 2.2054 1027
0.233846 1.71314 2.27749 1536
0.235369 1.50086 2.32533 1025
0.236883 1.28938 2.37298 3072
0.236883 1.0731 2.37298 67329
0.236883 0.856825 2.37298 1537
0.236883 0.640546 2.37298 1282
0.234609 0.414029 2.30143 1537
0.23232 0.186236 2.22948 1537
0.227691 -0.054491 2.08435 1024
0.219083 -0.318794 1.81396 256
0.108241 5.69059 1.13759 0
0.0973355 5.45155 1.37092 257
0.0889857 5.21886 1.5496 768
0.0807431 4.98929 1.72588 1025
0.0784089 4.76609 1.77581 1024
0.0795763 4.54509 1.75087 768
0.0784089 4.32319 1.77581 768
0.0795763 4.10178 1.75087 1027
0.0842596 3.87939 1.65062 768
0.0901712 3.65489 1.52422 769
0.0997413 3.42633 1.31942 0
0.103369 3.19847 1.24179 256
0.0985369 2.97675 1.34519 1024
0.0901712 2.76055 1.52422 512
0.0795763 2.55017 1.75087 1282
0.0714646 2.34009 1.92448 771
0.0634591 2.1328 2.09579 1280
0.0589255 1.92218 2.19267 768
0.055557 1.71093 2.26485 1536
0.0521985 1.50086 2.33662 1536
0.0510824 1.28678 2.36046 1026
0.0499776 1.0731 2.38425 1024
0.0510824 0.853822 2.36046 1538
0.0521985 0.634131 2.33662 1024
0.0544327 0.410604 2.28882 1281
0.0578047 0.182587 2.21677 513
0.065736 -0.0622931 2.04707 768
0.0795763 -0.33139 1.75087 256
0.0219264 5.69218 1.11657 256
-0.0105267 5.45155 1.37433 513
-0.036039 5.21776 1.57696 1025
-0.0517814 4.99017 1.70202 1024
-0.0580425 4.76675 1.75172 1024
-0.0611565 4.54464 1.77649 769
-0.0642711 4.32295 1.80122 1026
-0.0580425 4.10178 1.75172 771
-0.0517814 3.87975 1.70202 256
-0.03287 3.65529 1.5518 768
-0.00731066 3.42696 1.34878 768
0.00237796 3.19932 1.27183 256
-0.00731066 2.97675 1.34878 769
-0.03287 2.76181 1.5518 66049
-0.0580425 2.55017 1.75172 1029
-0.0797502 2.34009 1.92415 1025
-0.0981286 2.13097 2.07013 1536
-0.110271 1.92016 2.16654 1281
-0.119312 1.70871 2.23837 1536
-0.128307 1.49846 2.3098 67328
-0.131294 1.28418 2.33352 768
-0.137245 1.0731 2.38082 1281
-0.131294 0.850815 2.33352 1024
-0.131294 0.634131 2.33352 1792
-0.122314 0.407172 2.26222 1537
-0.110271 0.175268 2.16654 769
-0.0889671 -0.0701241 1.99735 256
-0.0549185 -0.335605 1.72689 257
-0.0710512 5.69059 1.14051 256
-0.123522 5.45021 1.39443 259
-0.149382 5.21997 1.51956 768
-0.185163 4.99017 1.69272 1537
-0.185163 4.76809 1.69272 1028
-0.205397 4.54419 1.79062 1027
-0.205397 4.32295 1.79062 1024
-0.195297 4.10178 1.74176 1025
-0.185163 3.87975 1.69272 1025
-0.159656 3.65569 1.56927 257
-0.123522 3.42821 1.39443 769
-0.102657 3.20016 1.29346 770
-0.118324 2.97781 1.36926 771
-0.154523 2.76181 1.54444 1024
-0.190235 2.54871 1.71726 772
-0.230473 2.34009 1.91196 1025
-0.25531 2.12913 2.03215 768
-0.279909 1.92016 2.15121 1024
-0.294567 1.70871 2.22211 1024
-0.309138 1.49846 2.29261 1025
-0.313968 1.28418 2.31602 1285
-0.3188 1.0703 2.33939 1027
-0.3188 0.853822 2.33939 1026
-0.309138 0.630915 2.29261 770
-0.294567 0.403733 2.22211 1280
-0.275007 0.171598 2.12749 768
-0.245405 -0.0701241 1.98421 768
-0.180084 -0.344059 1.66812 0
-0.1676 5.68901 1.15654 257
-0.239693 5.44888 1.40508 259
-0.275223 5.21886 1.52755 1024
-0.303396 4.99194 1.62468 1027
-0.331354 4.76675 1.72107 1028
-0.352184 4.54373 1.79288 1027
-0.3591 4.32247 1.81672 1024
-0.338311 4.10175 1.74505 1537
-0.331354 3.88012 1.72107 256
-0.289332 3.65608 1.57621 256
-0.24683 3.42945 1.42967 256
-0.218213 3.20186 1.33103 772
-0.225387 2.97781 1.35576 769
-0.26814 2.76055 1.50315 1025
-0.324385 2.54871 1.69704 1537
-0.372898 2.33845 1.86428 1031
-0.413966 2.12913 2.00586 1024
-0.447831 1.92016 2.12262 768
-0.467997 1.70871 2.19215 768
-0.488055 1.49846 2.26129 1536
-0.501366 1.28678 2.30717 1024
-0.501366 1.0703 2.30717 768
-0.501366 0.853822 2.30717 1025
-0.488055 0.630915 2.26129 1282
-0.474703 0.407172 2.21524 768
-0.447831 0.175268 2.12262 769
-0.39349 -0.0740514 1.93527 769
-0.303396 -0.348298 1.62468 256
-0.267046 5.68743 1.16425 259
-0.349197 5.44888 1.38194 256
-0.41211 5.21665 1.54865 768
-0.438815 4.99105 1.61941 769
-0.474185 4.76609 1.71313 770
-0.491768 4.54373 1.75972 768
-0.48298 4.32295 1.73645 768
-0.48298 4.10172 1.73645 1027
-0.456535 3.87994 1.66636 66305
-0.421033 3.65648 1.57228 513
-0.367262 3.43007 1.4298 768
-0.321973 3.20186 1.3098 768
-0.340142 2.97887 1.35794 768
-0.394221 2.76181 1.50125 512
-0.465367 2.55017 1.68977 1280
-0.518013 2.33845 1.82927 513
-0.570062 2.12913 1.96719 1024
-0.612991 1.92016 2.08094 768
-0.647039 1.71093 2.17117 1024
-0.663971 1.49846 2.21603 1025
-0.680841 1.28678 2.26072 1280
-0.680841 1.0703 2.26072 1024
-0.680841 0.853822 2.26072 769
-0.663971 0.630915 2.21603 1027
-0.647039 0.407172 2.17117 513
-0.604438 0.171598 2.05827 768
-0.544111 -0.0740514 1.89843 66561
-0.41211 -0.356801 1.54865 256
-0.357566 5.68743 1.13971 257
-0.456548 5.44888 1.35028 769
-0.532347 5.21665 1.51154 768
-0.575202 4.99017 1.60272 768
-0.617733 4.76542 1.6932 1027
-0.628319 4.54373 1.71571 1281
-0.63888 4.32247 1.73818 1024
-0.628319 4.10169 1.71571 1280
-0.596512 3.88012 1.64805 1024
-0.553815 3.65688 1.55722 769
-0.478307 3.43007 1.39658 1025
-0.445632 3.20354 1.32707 768
-0.467438 2.98098 1.37346 769
-0.510794 2.76181 1.46569 770
-0.596512 2.55017 1.64805 1284
-0.670442 2.34009 1.80533 769
-0.733033 2.13097 1.93849 1024
-0.774372 1.92016 2.02643 768
-0.815394 1.71093 2.11371 1024
-0.835794 1.49846 2.1571 1025
-0.85611 1.28678 2.20033 1280
-0.866243 1.0731 2.22189 1027
-0.85611 0.853822 2.20033 1024
-0.845965 0.634131 2.17873 768
-0.805167 0.403733 2.09195 512
-0.753739 0.167922 1.98254 768
-0.680922 -0.0779858 1.82763 768
-0.445885 5.68743 1.10814 512
-0.561084 5.44888 1.3103 769
-0.649302 5.21665 1.46512 1281
-0.699178 4.99017 1.55265 1025
-0.736337 4.76609 1.61786 1792
-0.773282 4.54328 1.6827 1025
-0.773282 4.32247 1.6827 770
-0.760991 4.10169 1.66113 1027
-0.748677 3.88048 1.63951 512
-0.686748 3.65728 1.53083 513
-0.624218 3.43192 1.4211 512
-0.54838 3.20354 1.28801 1024
-0.561084 2.97993 1.3103 1280
-0.624218 2.76181 1.4211 1281
-0.723973 2.55017 1.59617 66822
-0.810022 2.34009 1.74716 768
-0.882867 2.13097 1.875 1024
-0.942943 1.92218 1.98043 768
-0.990598 1.71314 2.06407 67330
-1.01429 1.50086 2.10565 769
-1.0379 1.28938 2.14707 1024
-1.0379 1.0731 2.14707 768
-1.02611 0.853822 2.12638 1281
-1.01429 0.634131 2.10565 768
-0.978722 0.407172 2.04321 1024
-0.906966 0.167922 1.91729 768
-0.810022 -0.0819278 1.74716 0
-0.516789 5.68901 1.04815 256
-0.662156 5.44888 1.26224 1027
-0.762248 5.21665 1.40966 66563
-0.818844 4.99017 1.49301 1536
-0.875005 4.76542 1.57572 1536
-0.902923 4.54328 1.61684 513
-0.902923 4.32247 1.61684 66048
-0.91684 4.10163 1.63734 1025
-0.888977 3.88066 1.5963 769
-0.818844 3.65767 1.49301 513
-0.733793 3.43192 1.36774 768
-0.662156 3.20438 1.26224 770
-0.647748 2.97887 1.24102 1024
-0.733793 2.76181 1.36774 768
-0.832924 2.54871 1.51374 1034
-0.944601 2.34009 1.67823 769
-1.02726 2.13097 1.79995 768
-1.09542 1.92218 1.90034 768
-1.14949 1.71314 1.97998 1024
-1.17637 1.50086 2.01957 1025
-1.20316 1.28938 2.05902 1280
-1.20316 1.0731 2.05902 1026
-1.20316 0.856825 2.05902 1027
-1.17637 0.634131 2.01957 768
-1.13602 0.407172 1.96013 1024
-1.0546 0.167922 1.84022 512
-0.944601 -0.0819278 1.67823 0
-0.597433 5.68901 1.00437 260
-0.75915 5.44888 1.2064 768
-0.854686 5.21776 1.32575 258
-0.933461 4.99017 1.42416 769
-1.01148 4.76476 1.52163 1537
-1.027 4.54328 1.54101 67075
-1.07336 4.32175 1.59894 768
-1.08876 4.10154 1.61818 1024
-1.05794 3.8812 1.57967 256
-0.964758 3.65846 1.46326 768
-0.838839 3.43192 1.30595 1024
-0.75915 3.20438 1.2064 1024
-0.75915 2.97993 1.2064 1284
-0.854686 2.76307 1.32575 1026
-0.949124 2.54871 1.44373 1025
-1.05794 2.33845 1.57967 1283
-1.16531 2.13097 1.71381 1024
-1.25622 1.9242 1.82738 513
-1.31626 1.71535 1.90239 1025
-1.34612 1.50326 1.93968 1792
-1.361 1.28938 1.95828 768
-1.37585 1.0759 1.97684 66562
-1.361 0.856825 1.95828 1025
-1.3312 0.634131 1.92105 66816
-1.2863 0.407172 1.86496 768
-1.19573 0.167922 1.75181 256
-1.07336 -0.0819278 1.59894 258
-0.692256 5.68743 0.973437 256
-0.851464 5.44888 1.14312 1025
-0.956069 5.21776 1.2546 1282
-1.04232 4.99017 1.34653 66305
-1.12775 4.76476 1.43758 1025
-1.14474 4.54328 1.45568 1027
-1.24599 4.32103 1.5636 1024
-1.24599 4.10148 1.5636 513
-1.24599 3.88192 1.5636 259
-1.12775 3.65964 1.43758 1027
-0.938718 3.43192 1.23611 256
-0.868981 3.20522 1.16179 1028
-0.868981 2.98098 1.16179 257
-0.938718 2.76181 1.23611 1537
-1.05947 2.54871 1.36481 1025
-1.19551 2.34009 1.50979 516
-1.31285 2.1328 1.63486 1280
-1.39572 1.9242 1.72319 768
-1.46147 1.71535 1.79325 66563
-1.49415 1.50326 1.82809 1024
-1.52671 1.29198 1.86279 1024
-1.54295 1.07869 1.8801 769
-1.51045 0.856825 1.84546 1281
-1.47783 0.634131 1.81068 769
-1.42866 0.407172 1.75828 512
-1.32949 0.167922 1.65259 1024
-1.17862 -0.0858774 1.49179 257
-0.868981 -0.382505 1.16179 256
-0.747198 5.68901 0.898542 1024
-0.919559 5.45021 1.05552 513
-1.07027 5.21665 1.19276 1281
-1.14475 4.99017 1.2606 1536
-1.23706 4.76476 1.34467 1025
-1.31028 4.54193 1.41134 768
-1.43708 4.10136 1.52681 257
-1.45505 3.8828 1.54319 257
-1.27374 3.66042 1.37806 257
-1.05156 3.43253 1.17572 256
-0.957456 3.20522 1.09003 1282
-0.957456 2.98098 1.09003 1026
-1.05156 2.76307 1.17572 1282
-1.16329 2.54871 1.27748 515
-1.3285 2.34174 1.42793 1026
-1.43708 2.1328 1.52681 1024
-1.54443 1.92621 1.62458 1280
-1.61533 1.71755 1.68916 67075
-1.66816 1.50805 1.73726 1024
-1.68571 1.29456 1.75324 769
-1.68571 1.07869 1.75324 66305
-1.68571 0.862812 1.75324 1280
-1.63297 0.637342 1.70522 1024
-1.57995 0.410604 1.65693 1024
-1.45505 0.167922 1.54319 513
-1.27374 -0.0898337 1.37806 256
-0.794729 5.69059 0.82111 257
-0.999541 5.45021 0.980113 1024
-1.14056 5.21776 1.0896 1024
-1.24013 4.99017 1.1669 1283
-1.3191 4.76542 1.2282 66305
-1.64811 4.10121 1.48363 0
-1.68612 3.88386 1.51315 512
-1.43644 3.66159 1.3193 256
-1.14056 3.43253 1.0896 1024
-1.04002 3.20522 1.01155 1283
-1.04002 2.98098 1.01155 769
-1.14056 2.76307 1.0896 769
-1.25993 2.54871 1.18227 1025
-1.41697 2.34009 1.30419 768
-1.57165 2.13462 1.42427 768
-1.68612 1.92822 1.51315 1024
-1.74288 1.71755 1.55721 1280
-1.79933 1.50805 1.60102 1281
-1.81807 1.29456 1.61558 1025
-1.83677 1.08147 1.63011 67076
-1.81807 0.862812 1.61558 1536
-1.78055 0.640546 1.58645 1024
-1.70508 0.410604 1.52786 772
-1.57165 0.167922 1.42427 768
-1.37793 -0.0898337 1.27388 256
-0.856703 5.69059 0.756224 261
-1.05188 5.45155 0.884549 513
-1.20134 5.21886 0.98282 1536
-1.32786 4.99017 1.066 1536
-1.43219 4.76476 1.13459 769
-2.01816 4.31591 1.51986 0
-1.87963 4.10103 1.42877 512
-1.91939 3.8849 1.45492 257
-1.55606 3.66197 1.21604 257
-1.22253 3.43253 0.996749 256
-1.11618 3.20522 0.926829 1026
-1.11618 2.98098 0.926829 1024
-1.22253 2.76307 0.996749 1280
-1.36971 2.55017 1.09351 768
-1.51493 2.34009 1.18899 1027
-1.65823 2.1328 1.28321 1025
-1.79965 1.92822 1.37619 768
-1.87963 1.71975 1.42877 1025
-1.91939 1.50805 1.45492 1536
-1.95901 1.29715 1.48097 1024
-1.97876 1.08425 1.49396 1025
-1.93922 0.862812 1.46795 1027
-1.89953 0.640546 1.44186 512
-1.8197 0.410604 1.38937 769
-1.67854 0.167922 1.29657 0
-1.45293 -0.0937982 1.14823 256
-0.913396 5.69059 0.686676 515
-1.11804 5.45155 0.799292 769
-1.27475 5.21886 0.885532 772
-1.42936 4.98929 0.970618 1026
-1.56025 4.76343 1.04264 1024
-2.23379 4.52885 1.41329 771
-2.2542 4.31455 1.42452 769
-2.13119 4.10083 1.35683 1025
-2.13119 3.88576 1.35683 256
-1.64668 3.66197 1.0902 516
-1.29697 3.43253 0.897756 258
-1.18546 3.20522 0.836396 1025
-1.20785 2.98204 0.848717 1795
-1.29697 2.76307 0.897756 1027
-1.45129 2.55017 0.982675 1792
-1.60355 2.34009 1.06647 768
-1.7751 2.13462 1.16087 768
-1.90207 1.92822 1.23075 768
-2.0068 1.72194 1.28838 1283
-2.04841 1.51044 1.31128 1793
-2.08988 1.29973 1.3341 1792
-2.11055 1.08703 1.34547 66305
-2.06917 0.865798 1.3227 1536
-2.02763 0.643744 1.29984 1024
-1.92309 0.410604 1.24232 1024
-1.7538 0.164238 1.14915 256
-1.51679 -0.0977702 1.01873 0
-0.916644 5.69377 0.591286 258
-1.1773 5.45155 0.709111 1025
-1.3403 5.21886 0.782785 770
-1.47827 4.99017 0.845152 1027
-1.63725 4.76343 0.917009 513
-2.48555 4.5259 1.30047 513
-2.42246 4.31387 1.27194 1280
-2.3802 4.10063 1.25284 66051
-2.25249 3.88593 1.19512 513
-1.74951 3.66236 0.967753 513
-1.36341 3.43253 0.793233 768
-1.24743 3.20522 0.740806 67076
-1.24743 2.98098 0.740806 1025
-1.3403 2.76181 0.782785 1283
-1.50111 2.54871 0.855478 1540
-1.68228 2.34009 0.937365 768
-1.86071 2.13462 1.01802 1024
-2.01464 1.93023 1.0876 1280
-2.1017 1.72194 1.12695 1536
-2.16657 1.51282 1.15627 1280
-2.20961 1.3023 1.17574 769
-2.20961 1.08703 1.17574 1282
-2.18811 0.868777 1.16601 256
-2.12336 0.643744 1.13675 769
-2.03646 0.414029 1.09747 1028
-1.86071 0.167922 1.01802 0
-1.61466 -0.0937982 0.906806 0
-0.960211 5.69377 0.517543 257
-1.20509 5.45289 0.605819 1282
-1.39759 5.21886 0.675217 1280
-1.54003 4.99017 0.726562 1794
-1.68083 4.7641 0.777324 769
-2.62314 4.52507 1.11702 1283
-2.55825 4.31342 1.09363 1537
-2.51478 4.10058 1.07796 768
-2.38343 3.88627 1.03061 768
-1.82004 3.66236 0.82751 1027
-1.42144 3.43253 0.683815 1024
-1.27762 3.20438 0.631969 1026
-1.27762 2.97993 0.631969 1027
-1.39759 2.76181 0.675217 1027
-1.58714 2.55017 0.743549 1287
-1.77382 2.34174 0.810841 769
-1.95767 2.13645 0.877125 1536
-2.09376 1.93023 0.926183 1540
-2.18364 1.72194 0.95858 1281
-2.27285 1.5152 0.990747 1280
-2.3172 1.30487 1.00673 1281
-2.33932 1.09256 1.0147 1537
-2.29504 0.871752 0.998747 1280
-2.22833 0.646936 0.974691 1024
-2.11629 0.414029 0.934307 1024
-1.93485 0.167922 0.868891 256
-1.65748 -0.0977702 0.768904 256
-0.997857 5.69377 0.44061 512
-1.22402 5.45424 0.502581 1026
-1.42175 5.21997 0.556766 67076
-1.56806 4.99105 0.596857 1027
-1.83196 4.76146 0.669175 66563
-2.65838 4.5259 0.895625 2563
-2.61391 4.31365 0.88344 2819
-2.56927 4.10061 0.871204 1792
-2.43435 3.8861 0.834236 1024
-1.87936 3.66236 0.682158 1027
-1.49512 3.43315 0.57687 1024
-1.32327 3.20438 0.529779 1792
-1.29853 2.97887 0.522998 1024
-1.42175 2.76055 0.556766 1027
-1.64059 2.55017 0.616729 1025
-1.83196 2.34174 0.669175 1027
-2.04382 2.13827 0.727223 768
-2.18308 1.93223 0.765382 1537
-2.29793 1.72632 0.79686 1025
-2.34357 1.5152 0.809365 769
-2.38905 1.30487 0.821827 1793
-2.38905 1.08979 0.821827 66822
-2.38905 0.874721 0.821827 1537
-2.29793 0.646936 0.79686 769
-2.18308 0.414029 0.765382 771
-1.99705 0.167922 0.714412 1026
-1.73664 -0.0937982 0.64305 259
-1.00351 5.69537 0.35602 257
-1.25968 5.45424 0.405 1027
-1.43605 5.22108 0.438717 1025
-1.58534 4.99194 0.467265 1024
-1.85462 4.76212 0.518747 768
-2.67516 4.52674 0.675629 2561
-2.6297 4.31409 0.666943 2304
-2.6297 4.10061 0.666943 2563
-2.42303 3.88559 0.627422 1536
-1.87882 3.66159 0.523376 1282
-1.51091 3.43253 0.453031 1024
-1.36076 3.20438 0.424322 67075
-1.36076 2.97993 0.424322 1025
-1.46105 2.76055 0.443499 1282
-1.68392 2.55017 0.486108 1027
-1.87882 2.34174 0.523376 1280
-2.09458 2.13827 0.564623 1283
-2.25988 1.93423 0.596236 1281
-2.35337 1.72632 0.614108 1281
-2.42303 1.51757 0.627422 1793
-2.44616 1.30487 0.631849 1792
-2.46925 1.09256 0.636266 1539
-2.44616 0.874721 0.631849 67328
-2.37663 0.650123 0.618552 768
-2.25988 0.417448 0.596236 512
-2.04695 0.167922 0.555521 2
-1.78174 -0.0937982 0.50481 256
-0.467058 5.96192 0.213983 257
-1.02835 5.69537 0.276187 256
-1.26188 5.45559 0.302068 771
-1.46605 5.22108 0.324698 1025
-1.61712 4.99194 0.341438 1282
-1.86507 4.76278 0.368915 1028
-2.65086 4.52801 0.456 1536
-2.6046 4.31477 0.450877 1282
-2.62775 4.10066 0.453439 1281
-2.39429 3.88507 0.42757 1283
-1.86507 3.66081 0.368915 1027
-1.5418 3.43253 0.333094 1283
-1.38985 3.20438 0.316254 1283
-1.36436 2.97887 0.313427 66816
-1.49135 2.76055 0.327497 1536
-1.71687 2.55017 0.352495 1536
-1.93854 2.34338 0.377058 1540
-2.10834 2.13645 0.395882 67328
-2.29969 1.93423 0.417088 1026
-2.39429 1.72632 0.42757 1024
-2.46479 1.51757 0.435386 1536
-2.51156 1.30743 0.440567 67584
-2.51156 1.09256 0.440567 1282
-2.4882 0.874721 0.437975 1280
-2.41784 0.650123 0.430175 1280
-2.29969 0.417448 0.417088 1024
-2.08422 0.167922 0.393205 0
-1.79118 -0.0977702 0.36073 3
-1.0205 5.69697 0.193815 516
-1.28169 5.45559 0.202129 1027
-1.43597 5.22331 0.207048 1024
-1.63892 4.99194 0.213507 1537
-1.88826 4.76278 0.221452 1027
-2.44413 4.53227 0.239154 1792
-2.53839 4.31568 0.242151 1792
-2.51489 4.10083 0.241401 2562
-2.34918 3.88455 0.236125 2051
-1.83877 3.66003 0.219873 1796
-1.53784 3.43192 0.210292 1537
-1.41038 3.20438 0.206231 1282
-1.38474 2.97887 0.205413 1793
-1.51244 2.76055 0.209482 1792
-1.73923 2.55017 0.216703 1027
-1.96214 2.34338 0.223806 1536
-2.18128 2.14008 0.230779 1024
-2.34918 1.93623 0.236125 1024
-2.42046 1.72632 0.238395 1793
-2.51489 1.51994 0.241401 67330
-2.56184 1.30999 0.2429 67075
-2.56184 1.09532 0.2429 1280
-2.51489 0.874721 0.241401 1280
-2.44413 0.650123 0.239154 1025
-2.32533 0.417448 0.235368 1024
-2.10865 0.167922 0.228464 66049
-1.81396 -0.0977702 0.219082 256
-0.439816 5.96572 0.140853 259
-1.00617 5.69857 0.114381 258
-1.26772 5.45694 0.102157 773
-1.44779 5.22331 0.0937432 67077
-1.62544 4.99282 0.0854413 1794
-1.85036 4.7641 0.0749249 1280
-2.26485 4.53574 0.0555556 1283
-2.38425 4.31728 0.0499761 2304
-2.4317 4.10095 0.0477598 2561
-2.28882 3.88403 0.0544312 1795
-1.80071 3.65925 0.0772496 1280
-1.52422 3.4313 0.0901702 768
-1.39659 3.20354 0.0961327 1794
-1.37092 2.97781 0.0973346 1536
-1.52422 2.76055 0.0901702 131843
-1.75087 2.55017 0.0795752 1281
-1.99817 2.34501 0.068018 1025
-2.19267 2.14008 0.0589241 1026
-2.33662 1.93423 0.052197 1792
-2.45536 1.7285 0.0466503 1536
-2.52608 1.51994 0.0433477 67328
-2.573 1.30999 0.0411486 1281
-2.573 1.09532 0.0411486 1280
-2.52608 0.874721 0.0433477 67075
-2.47898 0.653303 0.0455476 1024
-2.33662 0.417448 0.052197 1027
-2.12007 0.167922 0.0623233 0
-1.82556 -0.0977702 0.0760831 66048
-1.03825 5.69697 0.0317858 256
-1.27183 5.45694 0.00237715 66563
-1.45068 5.22331 -0.0201394 1796
-1.60207 4.99371 -0.0392004 1027
-1.80122 4.76542 -0.0642723 1794
-2.0943 4.53881 -0.101173 1540
-2.23837 4.31868 -0.119313 1796
-2.28603 4.10112 -0.125309 2819
-2.14251 3.88298 -0.107246 1792
-1.75172 3.65846 -0.0580436 1025
-1.50134 3.43069 -0.0265196 1024
-1.39983 3.20354 -0.0137349 1537
-1.39983 2.97887 -0.0137349 768
-1.52659 2.76055 -0.0296979 1280
-1.77649 2.55162 -0.0611577 1281
-1.99735 2.34501 -0.0889684 768
-2.19053 2.14008 -0.113286 1281
-2.33352 1.93423 -0.131287 67330
-2.45145 1.7285 -0.146141 1536
-2.52169 1.51994 -0.154982 1792
-2.54502 1.30743 -0.157917 2561
-2.54502 1.09256 -0.157917 67076
-2.52169 0.874721 -0.154982 1280
-2.47491 0.653303 -0.149094 1281
-2.33352 0.417448 -0.131287 768
-2.14251 0.171598 -0.107246 769
-1.85053 -0.0937982 -0.0704853 258
-0.985758 5.70017 -0.0390682 259
-1.24268 5.45829 -0.0921613 1026
-1.41956 5.22443 -0.128712 1537
-1.56927 4.9946 -0.159651 1536
-1.71726 4.76742 -0.190236 1536
-1.96017 4.54104 -0.240437 1282
-2.10372 4.31985 -0.270101 3333
-2.15121 4.10127 -0.279911 2564
-2.03215 3.88227 -0.255311 1539
-1.69271 3.65767 -0.185164 67076
-1.46965 3.43007 -0.139068 1025
-1.39443 3.20354 -0.123523 1796
-1.39443 2.97887 -0.123523 1027
-1.51956 2.76055 -0.149377 1027
-1.76622 2.55162 -0.200353 67076
-1.98421 2.34501 -0.245399 515
-2.17489 2.14008 -0.284806 67328
-2.31602 1.93423 -0.31397 1793
-2.40924 1.72632 -0.333235 1536
-2.50176 1.51994 -0.352356 1793
-2.54776 1.30999 -0.361859 1792
-2.54776 1.09532 -0.361859 66561
-2.50176 0.874721 -0.352356 1794
-2.45558 0.653303 -0.342816 1536
-2.33939 0.420861 -0.318801 1027
-2.12749 0.171598 -0.275009 0
-1.81498 -0.0977702 -0.21043 0
-0.979654 5.70017 -0.11629 256
-1.23161 5.45829 -0.189378 1282
-1.40508 5.22443 -0.239694 1024
-1.55191 4.9946 -0.282284 1282
-1.67297 4.76809 -0.317404 1281
-1.84052 4.54283 -0.366002 1536
-1.95884 4.32103 -0.400324 2562
-2.00586 4.10142 -0.413959 1795
-1.93527 3.88174 -0.393484 67329
-1.64885 3.65728 -0.310404 1796
-1.45421 3.43007 -0.253948 1025
-1.35576 3.2027 -0.225387 1281
-1.40508 2.97993 -0.239694 1024
-1.50315 2.76055 -0.268141 1024
-1.74505 2.55162 -0.338313 1026
-1.98237 2.34665 -0.40715 1025
-2.16902 2.1419 -0.461287 1025
-2.30717 1.93623 -0.501367 1025
-2.37566 1.72632 -0.521237 1539
-2.4664 1.51994 -0.547558 1281
-2.48898 1.30743 -0.554105 67330
-2.51152 1.09532 -0.560641 1540
-2.4664 0.874721 -0.547558 2049
-2.42112 0.653303 -0.534415 1792
-2.28425 0.417448 -0.494717 768
-2.09935 0.171598 -0.441084 768
-1.84052 -0.0898337 -0.366002 257
-0.942699 5.70178 -0.183432 256
-1.21296 5.45829 -0.285426 1025
-1.35794 5.22555 -0.340137 1025
-1.50125 4.99549 -0.394222 67330
-1.59587 4.76943 -0.429929 1537
-1.75972 4.54373 -0.491769 66820
-1.85237 4.32175 -0.52673 67329
-1.85237 4.10157 -0.52673 2561
-1.80613 3.88102 -0.509281 2561
-1.61941 3.65728 -0.438816 1281
-1.38194 3.42883 -0.349198 1536
-1.3339 3.2027 -0.331066 1028
-1.35794 2.97887 -0.340137 1286
-1.50125 2.76181 -0.394222 1024
-1.71313 2.55162 -0.474187 1027
-1.94432 2.34665 -0.561431 768
-2.12614 2.1419 -0.630046 1792
-2.26072 1.93623 -0.680834 67330
-2.3496 1.7285 -0.714382 1536
-2.3938 1.51757 -0.731062 67328
-2.41584 1.30487 -0.739375 1536
-2.43783 1.09256 -0.747683 1794
-2.41584 0.874721 -0.739375 1536
-2.37172 0.653303 -0.722728 1024
-2.23839 0.417448 -0.672415 1026
-2.08094 0.175268 -0.612992 256
-1.78295 -0.0937982 -0.500534 0
-0.925401 5.70178 -0.256831 513
-1.16329 5.45965 -0.368652 1029
-1.32707 5.22555 -0.445633 1539
-1.4427 4.99639 -0.499988 1540
-1.51154 4.77077 -0.532348 1795
-1.62541 4.54555 -0.585865 67075
-1.73818 4.32247 -0.638875 1792
-1.73818 4.10166 -0.638875 2562
-1.6932 3.88048 -0.617734 2817
-1.51154 3.65608 -0.532348 1792
-1.35028 3.42883 -0.456549 67077
-1.2805 3.20186 -0.423744 1539
-1.32707 2.97887 -0.445633 1542
-1.48864 2.76307 -0.521583 768
-1.6932 2.55307 -0.617734 1027
-1.8721 2.34501 -0.701829 1282
-2.07015 2.1419 -0.794921 1025
-2.17874 1.93423 -0.845958 1281
-2.26488 1.72632 -0.886451 67328
-2.30771 1.5152 -0.906586 1536
-2.35038 1.30487 -0.926642 1794
-2.37165 1.09256 -0.936641 1283
-2.35038 0.874721 -0.926642 1792
-2.30771 0.653303 -0.906586 1024
-2.17874 0.417448 -0.845958 768
-2.02643 0.175268 -0.774365 256
-1.76061 -0.0898337 -0.64942 260
-0.902398 5.70178 -0.328643 515
-1.10814 5.461 -0.445886 769
-1.24331 5.22779 -0.522906 66567
-1.37691 4.99728 -0.599034 1287
-1.48706 4.7701 -0.661807 1796
-1.53083 4.54646 -0.686743 67587
-1.61786 4.32319 -0.736338 1792
-1.59616 4.10178 -0.723974 1792
-1.57443 3.87994 -0.711589 2052
-1.44313 3.65569 -0.636768 67331
-1.28801 3.42821 -0.548381 66563
-1.26568 3.2027 -0.535655 1537
-1.28801 2.97887 -0.548381 1026
-1.44313 2.76307 -0.636768 771
-1.63951 2.55307 -0.748678 257
-1.83255 2.34665 -0.858674 1027
-1.98043 2.14008 -0.942944 1536
-2.10565 1.93423 -1.01429 1025
-2.16773 1.72413 -1.04967 2305
-2.22946 1.5152 -1.08485 67330
-2.27043 1.30487 -1.1082 1026
-2.27043 1.08979 -1.1082 1537
-2.24997 0.871752 -1.09653 1282
-2.22946 0.653303 -1.08485 1792
-2.12638 0.420861 -1.02611 1024
-1.95943 0.175268 -0.930972 512
-1.72571 -0.0858774 -0.797801 256
-0.873831 5.70178 -0.398432 256
-1.06974 5.461 -0.531456 1281
-1.19845 5.22779 -0.618844 1027
-1.30456 4.99818 -0.690895 1280
-1.38872 4.77145 -0.748034 1540
-1.45141 4.54692 -0.790603 1024
-1.47223 4.32416 -0.804735 67076
-1.47223 4.10187 -0.804735 2306
-1.45141 3.87939 -0.790603 67076
-1.34672 3.65489 -0.719517 67075
-1.24102 3.42821 -0.647749 67328
-1.21976 3.2027 -0.633309 1539
-1.24102 2.97887 -0.647749 1536
-1.38872 2.76307 -0.748034 1024
-1.5963 2.55452 -0.888978 769
-1.75953 2.34665 -0.999809 1027
-1.90034 2.14008 -1.09542 1537
-1.9998 1.93223 -1.16295 66305
-2.05902 1.72194 -1.20316 1281
-2.13748 1.5152 -1.25643 1792
-2.17648 1.30487 -1.28291 1536
-2.17648 1.08979 -1.28291 1280
-2.157 0.871752 -1.26968 1792
-2.13748 0.653303 -1.25643 256
-2.01957 0.417448 -1.17638 768
-1.90034 0.178931 -1.09542 768
-1.6578 -0.0858774 -0.930735 516
-0.819133 5.70339 -0.449159 66307
-1.02475 5.461 -0.613746 1025
-1.1462 5.22779 -0.710967 1028
-1.24634 4.99818 -0.791116 1024
-1.30595 4.77213 -0.838839 1797
-1.36523 4.54738 -0.886284 1025
-1.38491 4.32441 -0.902038 1539
-1.36523 4.10193 -0.886284 67330
-1.36523 3.87921 -0.886284 1536
-1.26625 3.65449 -0.807058 1024
-1.16631 3.42758 -0.727059 1539
-1.16631 3.2027 -0.727059 1536
-1.18637 2.97887 -0.743118 1281
-1.32575 2.76307 -0.854687 1024
-1.52163 2.55452 -1.01148 1536
-1.69475 2.34828 -1.15006 1794
-1.82738 2.1419 -1.25622 1280
-1.90239 1.93223 -1.31627 1280
-1.97684 1.72413 -1.37585 1280
-2.03231 1.5152 -1.42026 1536
-2.05073 1.3023 -1.43501 1536
-2.06912 1.08979 -1.44972 1536
-2.05073 0.871752 -1.43501 769
-2.01385 0.650123 -1.40549 1024
-1.93968 0.420861 -1.34611 256
-1.80854 0.178931 -1.24114 512
-1.57967 -0.0858774 -1.05794 256
-0.781366 5.70339 -0.512044 512
-0.954397 5.46236 -0.674395 513
-1.04922 5.23005 -0.76336 1281
-1.16179 4.99908 -0.868982 1028
-1.23611 4.77213 -0.938719 1283
-1.27306 4.54784 -0.973386 1280
-1.27306 4.3249 -0.973386 1792
-1.29148 4.10193 -0.990668 1793
-1.2546 3.87884 -0.95607 1795
-1.16179 3.65368 -0.868982 1537
-1.10566 3.42758 -0.816326 1536
-1.08689 3.20186 -0.798702 1025
-1.14312 2.97993 -0.851465 1536
-1.2546 2.76307 -0.95607 513
-1.41944 2.55307 -1.11073 66306
-1.58146 2.34665 -1.26275 768
-1.70559 2.14008 -1.37921 1536
-1.79325 1.93223 -1.46147 1536
-1.86279 1.72413 -1.52672 1793
-1.89737 1.51282 -1.55916 67075
-1.93181 1.3023 -1.59148 1280
-1.94899 1.08979 -1.6076 1027
-1.91461 0.868777 -1.57534 1282
-1.89737 0.650123 -1.55916 1026
-1.82809 0.420861 -1.49415 256
-1.72318 0.182587 -1.39573 0
-1.52776 -0.0779858 -1.21237 0
-0.720857 5.705 -0.552086 1024
-0.880933 5.46373 -0.727855 1282
-1.0035 5.22892 -0.86244 769
-1.07279 4.99998 -0.938525 1793
-1.14155 4.7728 -1.01402 1793
-1.15865 4.54876 -1.03281 1792
-1.19277 4.3249 -1.07026 2049
-1.19277 4.10196 -1.07026 1537
-1.15865 3.87865 -1.03281 1792
-1.09003 3.65368 -0.957457 1792
-1.02087 3.42696 -0.881517 1025
-1.02087 3.20186 -0.881517 1026
-1.05552 2.97887 -0.91956 1284
-1.17572 2.76307 -1.05155 1027
-1.34466 2.55452 -1.23706 769
-1.47752 2.34665 -1.38294 1031
-1.59212 2.14008 -1.50878 1792
-1.65693 1.93023 -1.57995 256
-1.72126 1.72194 -1.65059 1281
-1.76919 1.51282 -1.70321 1280
-1.801 1.3023 -1.73814 67329
-1.81685 1.08979 -1.75556 1536
-1.801 0.871752 -1.73814 1024
-1.76919 0.650123 -1.70321 1024
-1.70522 0.420861 -1.63298 512
-1.60836 0.182587 -1.52662 257
-1.42793 -0.0779858 -1.3285 257
-0.675318 5.705 -0.606942 512
-0.82111 5.46373 -0.79473 512
-0.885083 5.23231 -0.877134 770
-0.980113 5.00088 -0.999541 66564
-1.04286 4.77348 -1.08036 1282
-1.07405 4.54876 -1.12053 67077
-1.0896 4.32514 -1.14056 67330
-1.07405 4.10202 -1.12053 1537
-1.05847 3.87847 -1.10046 1792
-0.980113 3.65287 -0.999541 1284
-0.94856 3.42696 -0.958897 1536
-0.932737 3.20101 -0.938516 1281
-0.980113 2.97887 -0.999541 769
-1.0896 2.76307 -1.14056 768
-1.24346 2.55452 -1.33875 1282
-1.36446 2.34665 -1.4946 768
-1.46883 2.14008 -1.62905 1280
-1.52786 1.93023 -1.70508 769
-1.60103 1.72413 -1.79932 1025
-1.6301 1.51282 -1.83677 1536
-1.65907 1.3023 -1.87409 66816
-1.67352 1.08979 -1.89269 1027
-1.65907 0.871752 -1.87409 1794
-1.6301 0.650123 -1.83677 768
-1.58645 0.424267 -1.78054 768
-1.4984 0.186236 -1.66713 0
-1.33438 -0.0740514 -1.45586 0
-0.610961 5.70662 -0.635765 768
-0.741826 5.46509 -0.834805 1283
-0.813534 5.23231 -0.943874 769
-0.870401 5.00269 -1.03037 768
-0.940868 4.77416 -1.13754 1537
-0.968861 4.54922 -1.18012 1025
-0.982819 4.32539 -1.20135 1794
-0.968861 4.10205 -1.18012 1025
-0.926828 3.87791 -1.11618 67076
-0.884549 3.65247 -1.05188 1280
-0.856225 3.42633 -1.00881 1280
-0.856225 3.20101 -1.00881 1540
-0.898671 2.97887 -1.07336 1536
-1.01065 2.76433 -1.24368 1024
-1.13459 2.55452 -1.43219 769
-1.25642 2.34828 -1.61748 513
-1.33649 2.14008 -1.73926 1280
-1.40253 1.93223 -1.83971 1283
-1.44186 1.72194 -1.89953 769
-1.48097 1.51282 -1.95901 1536
-1.50692 1.3023 -1.99848 1027
-1.50692 1.08703 -1.99848 770
-1.50692 0.871752 -1.99848 769
-1.48097 0.650123 -1.95901 1536
-1.44186 0.424267 -1.89953 768
-1.36298 0.186236 -1.77956 512
-1.22952 -0.0701241 -1.57658 0
-0.54631 5.70824 -0.658323 256
-0.67404 5.46509 -0.890435 1539
-0.761973 5.23005 -1.05022 512
-0.799291 5.00178 -1.11804 768
-0.836395 4.77484 -1.18546 1536
-0.861014 4.54968 -1.23019 1027
-0.873282 4.32564 -1.2525 66562
-0.848716 4.10211 -1.20785 1281
-0.82405 3.87773 -1.16303 2048
-0.774439 3.65166 -1.07287 67330
-0.761973 3.42571 -1.05022 1281
-0.761973 3.20016 -1.05022 1284
-0.811685 2.97887 -1.14056 257
-0.909957 2.76433 -1.31914 769
-1.0307 2.55596 -1.53854 258
-1.12564 2.34828 -1.71107 768
-1.19591 2.14008 -1.83876 1024
-1.24232 1.93023 -1.9231 1025
-1.29984 1.72413 -2.02763 1027
-1.3227 1.51282 -2.06917 1536
-1.34548 1.3023 -2.11055 1280
-1.34548 1.08703 -2.11055 1024
-1.34548 0.871752 -2.11055 1537
-1.3341 0.653303 -2.08988 1024
-1.28838 0.424267 -2.0068 769
-1.21915 0.186236 -1.88101 768
-1.10203 -0.0701241 -1.66818 0
-0.492973 5.70824 -0.699157 771
-0.580446 5.46783 -0.89267 772
-0.698502 5.22779 -1.15384 768
-0.70911 5.00178 -1.1773 256
-0.730263 4.77553 -1.2241 1026
-0.751332 4.55015 -1.27072 1537
-0.761838 4.32588 -1.29396 67076
-0.740805 4.10215 -1.24743 1794
-0.719695 3.87754 -1.20073 1792
-0.687874 3.65166 -1.13033 2048
-0.655866 3.42445 -1.05952 1282
-0.677224 3.20016 -1.10677 1282
-0.719695 2.97887 -1.20073 1027
-0.814058 2.76559 -1.40949 768
-0.906805 2.55596 -1.61466 769
-0.987917 2.34828 -1.79411 771
-1.04795 2.14008 -1.92693 1280
-1.10732 1.93423 -2.05825 1536
-1.12695 1.72194 -2.1017 1280
-1.15628 1.51282 -2.16656 1024
-1.17574 1.3023 -2.20961 66305
-1.18543 1.08979 -2.23107 769
-1.18543 0.874721 -2.23107 768
-1.16601 0.653303 -2.18811 768
-1.12695 0.424267 -2.1017 512
-1.07772 0.189879 -1.99277 769
-0.987917 -0.0622931 -1.79411 0
-0.427516 5.70986 -0.710484 768
-0.508618 5.46783 -0.93546 1536
-0.579517 5.23118 -1.13213 67072
-0.614553 5.00178 -1.22931 1280
-0.631969 4.77553 -1.27762 1024
-0.640653 4.55061 -1.30171 67330
-0.657966 4.32588 -1.34974 1795
-0.640653 4.10215 -1.30171 1795
-0.623267 3.87754 -1.25349 2050
-0.588303 3.65125 -1.15649 1539
-0.570714 3.42445 -1.10771 1280
-0.579517 3.19932 -1.13213 1537
-0.623267 2.97887 -1.25349 774
-0.700966 2.76559 -1.46901 258
-0.785729 2.5574 -1.70414 259
-0.85239 2.3499 -1.88905 768
-0.901726 2.1419 -2.02591 1281
-0.942412 1.93423 -2.13878 1024
-0.966649 1.72413 -2.206 769
-0.990745 1.5152 -2.27285 769
-1.00674 1.30487 -2.3172 512
-1.0147 1.09256 -2.33932 257
-1.00674 0.874721 -2.3172 512
-0.998745 0.656478 -2.29505 768
-0.97469 0.431061 -2.22833 768
-0.934306 0.197143 -2.11629 257
-0.860651 -0.054491 -1.91197 0
-0.370456 5.70986 -0.741836 256
-0.426689 5.46921 -0.947056 1025
-0.488903 5.23118 -1.1741 1026
-0.5094 5.00269 -1.2489 770
-0.523002 4.77621 -1.29853 1281
-0.536546 4.55061 -1.34796 1282
-0.536546 4.32638 -1.34796 1539
-0.529778 4.10218 -1.32327 2049
-0.5094 3.87717 -1.2489 2048
-0.488903 3.65084 -1.1741 1792
-0.468289 3.42319 -1.09886 2560
-0.482044 3.19847 -1.14907 1283
-0.523002 2.97887 -1.29853 769
-0.583546 2.76559 -1.51948 771
-0.6496 2.5574 -1.76054 769
-0.707984 2.35153 -1.9736 769
-0.746357 2.14371 -2.11364 1025
-0.778011 1.93623 -2.22915 768
-0.809363 1.73067 -2.34357 769
-0.834234 1.52467 -2.43435 256
-0.828041 0.877684 -2.41172 0
-0.828041 0.662809 -2.41172 512
-0.803115 0.434448 -2.32077 769
-0.771698 0.200765 -2.20613 256
-0.720821 -0.0467181 -2.02046 0
-0.203137 5.97915 -0.203895 256
-0.306071 5.71149 -0.742257 257
-0.346109 5.47058 -0.951669 512
-0.385523 5.23344 -1.15781 769
-0.400142 5.0045 -1.23429 66816
-0.419507 4.77621 -1.33556 1027
-0.429131 4.55061 -1.3859 1537
-0.429131 4.32638 -1.3859 1539
-0.419507 4.10221 -1.33556 1536
-0.404999 3.87698 -1.25968 1798
-0.390406 3.65043 -1.18335 1537
-0.380628 3.42319 -1.13222 1025
-0.390406 3.19847 -1.18335 1537
